0.0395341 0.193879 0.0691631
0.0671548 0.189179 0.068062
0.0702447 0.198343 0.0434056
0.0606296 0.186937 0.0435302
0.0466775 0.190229 0.0469756
0.0520925 0.174222 0.0443082
0.0752158 0.166726 0.042835
0.077129 0.181857 0.0440667
0.10721 0.193815 0.0655107
0.088368 0.162032 0.0772508
0.0952246 0.19423 0.0452365
0.108444 0.188324 0.0425544
0.0963406 0.16461 0.0434668
0.108702 0.160054 0.0644151
0.0892164 0.177138 0.0458769
0.0803832 0.197311 0.0651466
0.0922871 0.183088 0.0662033
0.106946 0.175675 0.065521
0.111246 0.171631 0.04337
0.0648282 0.122582 0.101005
0.0777203 0.152336 0.08299
0.0455239 0.135794 0.0991442
0.064033 0.140567 0.09569
0.0411919 0.129948 0.0867439
0.0516752 0.150184 0.0978531
0.107949 0.13657 0.0886489
0.0967251 0.137554 0.0977393
0.117458 0.146342 0.0872934
0.0919797 0.120593 0.0940392
0.0852662 0.143472 0.107336
0.0944499 0.152558 0.0971605
0.115416 0.128459 0.0790147
0.102622 0.120657 0.083599
0.0848529 0.130203 0.103085
0.0388908 0.184662 0.0818011
0.040813 0.170131 0.107986
0.060597 0.181324 0.106691
0.0613572 0.16199 0.106418
0.0667694 0.198394 0.109618
0.0701588 0.179337 0.0916618
0.0515971 0.184173 0.0875341
0.061972 0.195788 0.0896408
0.0397501 0.174074 0.0938674
0.0621982 0.163485 0.0900738
0.111077 0.162868 0.0850992
0.11124 0.189487 0.108247
0.104631 0.176612 0.111671
0.100977 0.166517 0.0989194
0.113599 0.18662 0.0858316
0.0826243 0.165265 0.101119
0.0982669 0.182123 0.0886277
0.0876398 0.191487 0.0882379
0.0849974 0.183879 0.101195
0.121299 0.149308 0.0424169
0.15592 0.146251 0.0487295
0.135372 0.141492 0.0424463
0.149225 0.137818 0.0627441
0.122389 0.12217 0.0573522
0.127073 0.131466 0.0697265
0.133331 0.158881 0.0480662
0.154181 0.146928 0.0729523
0.146439 0.137789 0.0498263
0.135978 0.129728 0.0567644
0.123552 0.131118 0.0447588
0.13141 0.143354 0.0795388
0.168077 0.152981 0.0494285
0.165107 0.157617 0.0735229
0.164923 0.145951 0.0621535
0.176502 0.159297 0.063686
0.135128 0.162983 0.065321
0.123218 0.182407 0.0437118
0.148225 0.193338 0.0442724
0.148697 0.171262 0.0624745
0.123899 0.194048 0.0629054
0.131975 0.183622 0.0728272
0.146875 0.168272 0.044453
0.133298 0.194108 0.0466215
0.133688 0.17329 0.0428017
0.157791 0.181801 0.0436394
0.146844 0.1868 0.0652877
0.122844 0.171383 0.067597
0.17658 0.163872 0.0471825
0.194987 0.178733 0.0653032
0.187034 0.168146 0.0574874
0.169202 0.185896 0.0582727
0.180701 0.179048 0.0436713
0.180055 0.199322 0.0819817
0.194595 0.177808 0.0464018
0.171771 0.169662 0.0751292
0.161593 0.16558 0.0425531
0.188281 0.185318 0.0769387
0.188548 0.193017 0.0470977
0.166198 0.195988 0.0440807
0.144564 0.150721 0.081217
0.138069 0.157081 0.0897607
0.122304 0.173678 0.0973297
0.125147 0.194442 0.107429
0.160811 0.178261 0.081615
0.12504 0.159777 0.0926114
0.149111 0.168171 0.0842965
0.143568 0.188968 0.0934035
0.138722 0.172945 0.0943965
0.133942 0.18492 0.101308
0.175737 0.182122 0.0814531
0.166295 0.193885 0.0828822
0.0725095 0.143762 0.116563
0.0518584 0.14046 0.124834
0.0764834 0.154244 0.122544
0.0627276 0.135837 0.117477
0.0515905 0.127801 0.119052
0.0512877 0.154338 0.12679
0.0761618 0.19532 0.123394
0.0713969 0.178338 0.130447
0.0624171 0.188838 0.120493
0.0762294 0.16461 0.128488
0.046105 0.170218 0.123074
0.0564991 0.178222 0.126834
0.0605844 0.16464 0.130763
0.0881719 0.16289 0.118422
0.0859791 0.184642 0.125967
0.0957156 0.173892 0.121006
0.0996325 0.187847 0.121114
0.228901 0.188635 0.0605308
0.20115 0.192344 0.0753715
0.21699 0.181321 0.0575098
0.234381 0.19363 0.0447021
0.209865 0.192065 0.0439193
0.214899 0.19089 0.071064
0.223031 0.188136 0.0450282
0.205711 0.178048 0.0524793
0.277564 0.190613 0.0432522
0.263201 0.191118 0.0732456
0.261493 0.191191 0.0453868
0.273466 0.183315 0.0528517
0.247309 0.19469 0.0457278
0.251477 0.191407 0.0612398
0.262971 0.184706 0.0600368
0.273618 0.194002 0.0822994
0.27996 0.185979 0.0722527
0.288588 0.181948 0.060666
0.302416 0.180368 0.0551355
0.307433 0.192227 0.0438374
0.291099 0.191754 0.0810635
0.31607 0.178705 0.0595162
0.292996 0.187109 0.0457022
0.304042 0.18563 0.0696101
0.319818 0.186292 0.0457989
0.33454 0.18917 0.0425647
0.328234 0.177316 0.0666885
0.330922 0.177324 0.0521931
0.325549 0.189889 0.077489
0.339966 0.179938 0.0765131
0.348064 0.182685 0.0472904
0.343469 0.175456 0.0618478
0.352879 0.185092 0.0818525
0.338221 0.191065 0.0881668
0.057377 0.209771 0.0562213
0.069503 0.211237 0.049613
0.0766988 0.226651 0.072378
0.050211 0.204769 0.0678044
0.0684634 0.220309 0.0602493
0.0676276 0.21657 0.0762541
0.0920339 0.226037 0.0508249
0.111889 0.239382 0.0789184
0.108502 0.239381 0.052449
0.094716 0.207262 0.064192
0.100614 0.240782 0.0671255
0.114683 0.219216 0.0636339
0.11062 0.204652 0.0452708
0.0820133 0.227658 0.0579007
0.104436 0.228234 0.0466645
0.0962033 0.213378 0.0429836
0.0887621 0.234181 0.0711252
0.117201 0.2215 0.0429979
0.0829832 0.205619 0.0438649
0.112887 0.247778 0.0638221
0.0710541 0.208904 0.0887264
0.058741 0.20511 0.0795081
0.0931624 0.204505 0.0796287
0.110008 0.21152 0.0967399
0.0771946 0.209518 0.101781
0.0934282 0.210433 0.0972312
0.101519 0.23002 0.0817785
0.0888334 0.222709 0.0816599
0.112772 0.227166 0.0991981
0.113269 0.214457 0.0763545
0.132478 0.213505 0.0654029
0.157045 0.224529 0.0466401
0.145502 0.20201 0.0663065
0.135174 0.229446 0.062548
0.14296 0.213728 0.044054
0.156809 0.230212 0.0629424
0.14496 0.236 0.0428829
0.127034 0.207629 0.0432076
0.157536 0.208379 0.0436501
0.131036 0.225281 0.0456354
0.155982 0.214817 0.0663868
0.161589 0.240145 0.0449687
0.202119 0.219253 0.0751598
0.193869 0.206379 0.0806419
0.185476 0.20558 0.0652472
0.174259 0.210826 0.0448439
0.174774 0.230683 0.0633113
0.177659 0.232445 0.0462676
0.169547 0.201914 0.0662635
0.17546 0.222014 0.0764815
0.187079 0.239637 0.0612603
0.18932 0.205905 0.0418963
0.198044 0.216999 0.0489376
0.185513 0.221119 0.0438155
0.147845 0.253513 0.0450759
0.135452 0.257427 0.0555101
0.159605 0.255996 0.068731
0.121336 0.246666 0.051218
0.152108 0.260513 0.0587248
0.126084 0.242809 0.0813045
0.126805 0.252095 0.0669273
0.142866 0.254893 0.0684928
0.133252 0.246598 0.0458588
0.187972 0.262209 0.0488648
0.186739 0.260495 0.0771508
0.199375 0.269844 0.0563187
0.161589 0.255565 0.0475218
0.173909 0.259383 0.0507043
0.172946 0.25626 0.0762212
0.179351 0.262193 0.0630331
0.182372 0.247559 0.0415968
0.196424 0.244415 0.0471024
0.151112 0.198061 0.0850415
0.128186 0.223488 0.0836648
0.155004 0.216454 0.0851158
0.142434 0.226375 0.0814524
0.13332 0.203498 0.0866957
0.118967 0.199066 0.0835723
0.156504 0.214106 0.101824
0.132752 0.242629 0.0973267
0.144007 0.210534 0.10534
0.121467 0.236054 0.0999807
0.133511 0.204271 0.109403
0.18957 0.224518 0.0821486
0.168075 0.218056 0.104989
0.179396 0.221237 0.101309
0.192193 0.226235 0.102546
0.16568 0.230169 0.0870752
0.143993 0.242719 0.0796514
0.154251 0.244009 0.111503
0.146592 0.246807 0.10011
0.139814 0.240164 0.111105
0.173229 0.256375 0.0969329
0.169095 0.248371 0.110939
0.160279 0.251362 0.0995817
0.198959 0.247366 0.0789088
0.184666 0.242729 0.0832982
0.161804 0.243365 0.0798246
0.18083 0.255538 0.108377
0.187947 0.260368 0.0972646
0.0768563 0.20626 0.114988
0.102378 0.217011 0.115044
0.0892404 0.211404 0.113754
0.114631 0.224379 0.115358
0.113832 0.20903 0.119203
0.100057 0.202198 0.120129
0.157312 0.22606 0.113488
0.141879 0.22377 0.114951
0.128283 0.231182 0.114741
0.127746 0.214984 0.117723
0.171476 0.231269 0.113896
0.18482 0.231565 0.112717
0.196723 0.239077 0.113639
0.194368 0.255133 0.111429
0.209475 0.205882 0.0764755
0.210172 0.236145 0.0764071
0.223006 0.224462 0.0799203
0.229199 0.228729 0.0427498
0.221447 0.213339 0.0426292
0.226032 0.198724 0.0733597
0.206258 0.227892 0.0570759
0.214877 0.226007 0.0428598
0.230683 0.209334 0.0817473
0.23725 0.208696 0.0437392
0.225428 0.218168 0.0646407
0.210597 0.206078 0.0508681
0.250169 0.216705 0.0466814
0.261302 0.203737 0.081565
0.243184 0.236613 0.0472191
0.240383 0.223397 0.0610149
0.264051 0.214503 0.0595606
0.256573 0.237537 0.0408765
0.261988 0.208501 0.0431511
0.276049 0.216268 0.044631
0.269797 0.229468 0.0413418
0.277562 0.217684 0.0672115
0.242734 0.202908 0.0699598
0.255504 0.228992 0.0644886
0.213976 0.270226 0.0502839
0.200164 0.265473 0.0725987
0.228989 0.259209 0.064256
0.22243 0.261199 0.0424839
0.235683 0.276541 0.0482393
0.202133 0.26111 0.0438659
0.211895 0.247195 0.0438625
0.229667 0.242239 0.0658104
0.237572 0.258948 0.0468002
0.20956 0.275931 0.063804
0.213299 0.243975 0.0612686
0.228869 0.245582 0.0430529
0.21319 0.269004 0.0795282
0.220954 0.282282 0.0682547
0.275769 0.243447 0.0554782
0.262169 0.250736 0.0442347
0.273031 0.259525 0.0655145
0.263794 0.263813 0.0431748
0.24911 0.268964 0.0433774
0.250681 0.270955 0.0673101
0.253068 0.246264 0.0597924
0.278657 0.266816 0.043597
0.247886 0.257375 0.0713333
0.266846 0.275182 0.0642697
0.203954 0.231429 0.0988247
0.236667 0.220328 0.089902
0.21845 0.232022 0.0993532
0.260863 0.235833 0.10343
0.250524 0.222444 0.0886973
0.24737 0.209719 0.0836362
0.261075 0.229583 0.0786963
0.271072 0.215145 0.0850174
0.202311 0.261522 0.0978216
0.217082 0.250812 0.083936
0.230714 0.251233 0.0872529
0.225824 0.276111 0.0810198
0.231195 0.263839 0.108707
0.234996 0.268867 0.0895215
0.233116 0.230937 0.102907
0.217206 0.263876 0.101284
0.246799 0.264102 0.110709
0.246385 0.23787 0.101807
0.261539 0.264948 0.114391
0.273906 0.263364 0.102152
0.256079 0.277888 0.0958619
0.239467 0.241829 0.0789197
0.271913 0.254073 0.0890112
0.255533 0.249952 0.0834745
0.268982 0.268182 0.0795959
0.250036 0.259851 0.0953693
0.245509 0.282015 0.0877207
0.311246 0.214781 0.0750035
0.286655 0.23743 0.0415552
0.30287 0.208198 0.0432847
0.285959 0.202883 0.0442845
0.290878 0.207894 0.0647689
0.290569 0.22345 0.0640659
0.298585 0.2342 0.0743924
0.30809 0.206941 0.0635249
0.314971 0.230962 0.0714953
0.292295 0.2225 0.0424518
0.308721 0.223284 0.0443775
0.342585 0.22312 0.0455997
0.332976 0.201334 0.064335
0.325989 0.223762 0.0426789
0.349878 0.209246 0.0435192
0.337017 0.237195 0.0736133
0.323768 0.214055 0.0632874
0.342106 0.239598 0.042013
0.347302 0.200496 0.0651604
0.327362 0.238136 0.0604095
0.347646 0.218303 0.06802
0.320094 0.20975 0.0425215
0.335199 0.204177 0.0428037
0.323654 0.239151 0.0430364
0.356511 0.231293 0.0630953
0.295099 0.274503 0.0621311
0.285545 0.252674 0.0423224
0.297454 0.257599 0.0605407
0.301354 0.241265 0.0582662
0.308173 0.283034 0.073231
0.312569 0.269153 0.041959
0.316801 0.271544 0.0602909
0.295901 0.265594 0.0420242
0.314917 0.253105 0.0430968
0.30516 0.239942 0.0418369
0.280314 0.280951 0.0798433
0.278211 0.24392 0.070582
0.294391 0.253055 0.0751151
0.342518 0.255807 0.0424792
0.356068 0.252268 0.0713626
0.352788 0.271933 0.0591217
0.335908 0.269072 0.0620814
0.356871 0.269875 0.0753434
0.329273 0.263613 0.0414618
0.346784 0.26821 0.0423468
0.319795 0.25308 0.0611685
0.348536 0.245118 0.0576395
0.304686 0.193766 0.0814135
0.302136 0.210417 0.101045
0.282876 0.202984 0.0873943
0.317104 0.207761 0.100101
0.290545 0.217149 0.0873564
0.308885 0.200645 0.0923452
0.291638 0.219034 0.104697
0.276215 0.237368 0.0832642
0.371714 0.225301 0.076594
0.324776 0.202096 0.0891367
0.377409 0.239497 0.100132
0.344006 0.201768 0.096114
0.35342 0.193151 0.0912008
0.334523 0.219962 0.0763352
0.279472 0.241911 0.098935
0.311469 0.251038 0.09207
0.309793 0.275716 0.0991016
0.313656 0.269279 0.0784956
0.291184 0.268912 0.083531
0.293834 0.277077 0.104922
0.277752 0.281676 0.105539
0.298276 0.256663 0.0919273
0.331722 0.28152 0.0795695
0.338704 0.284147 0.100545
0.353827 0.279995 0.098586
0.323624 0.243964 0.0820146
0.34255 0.268942 0.100314
0.325138 0.258386 0.0777444
0.349661 0.247286 0.0871252
0.326066 0.271396 0.099384
0.357086 0.264769 0.0996079
0.342338 0.26178 0.0774195
0.233619 0.287191 0.0708412
0.232132 0.28393 0.056702
0.260023 0.294438 0.0510676
0.265466 0.302294 0.0612448
0.258351 0.297302 0.0717997
0.274673 0.301713 0.0499842
0.246629 0.286205 0.0518042
0.246156 0.291154 0.0748882
0.274756 0.304253 0.0734693
0.259942 0.281782 0.0428977
0.274944 0.290508 0.0430902
0.271066 0.30045 0.0888889
0.277437 0.296082 0.101725
0.256017 0.293315 0.0875791
0.265081 0.288783 0.0990088
0.314102 0.301956 0.0427222
0.282317 0.284246 0.0633982
0.298907 0.305018 0.0468135
0.314154 0.311078 0.0544743
0.315026 0.292596 0.0665444
0.303299 0.312133 0.0723976
0.31272 0.283885 0.0417927
0.286762 0.30807 0.0528402
0.287397 0.280947 0.0425886
0.299023 0.290112 0.0454012
0.287132 0.31182 0.067007
0.300319 0.314118 0.0587077
0.354996 0.291115 0.0439599
0.340968 0.307257 0.0587527
0.336341 0.284771 0.0672476
0.342648 0.299842 0.0459971
0.357586 0.298461 0.0549967
0.340829 0.282068 0.0424465
0.349045 0.302956 0.0682161
0.325575 0.308218 0.0658306
0.359176 0.295421 0.0736891
0.327255 0.290291 0.0450588
0.329083 0.306589 0.0499701
0.292187 0.292197 0.105407
0.318124 0.302249 0.0967803
0.309717 0.307592 0.0840654
0.291039 0.308904 0.0802551
0.30263 0.302674 0.0981369
0.287049 0.303766 0.0941482
0.296654 0.286417 0.0806762
0.308757 0.291437 0.104365
0.331855 0.297944 0.0955681
0.325831 0.305271 0.08153
0.339838 0.301709 0.0815719
0.350356 0.292328 0.0889743
0.323078 0.287189 0.10317
0.232022 0.239247 0.119399
0.222636 0.234123 0.113765
0.210248 0.236735 0.113289
0.245865 0.239108 0.120184
0.273113 0.23721 0.12573
0.259417 0.236409 0.121407
0.268928 0.227388 0.113327
0.207691 0.259411 0.111472
0.219763 0.258571 0.115712
0.230906 0.254248 0.121198
0.245374 0.255831 0.123198
0.272256 0.25257 0.128342
0.275456 0.26501 0.119811
0.258719 0.254467 0.125788
0.294182 0.24185 0.101421
0.277847 0.223376 0.104744
0.282867 0.22743 0.11966
0.290497 0.264276 0.112948
0.305557 0.257988 0.115757
0.284789 0.256117 0.125973
0.306738 0.229382 0.117712
0.303493 0.234315 0.0896104
0.295468 0.232285 0.123403
0.318143 0.231755 0.0979456
0.31746 0.259859 0.111455
0.292811 0.246084 0.127466
0.306187 0.243589 0.125294
0.328612 0.252138 0.113101
0.450346 0.0685384 0.0660933
0.455811 0.0610441 0.0773881
0.45768 0.0537804 0.0636594
0.47637 0.0476892 0.0434099
0.464539 0.0406043 0.0469973
0.46198 0.0556045 0.0496218
0.471882 0.065006 0.0425164
0.459623 0.0717909 0.0473504
0.489224 0.0436801 0.0745806
0.508816 0.0445531 0.0443629
0.502828 0.0694942 0.0448524
0.493166 0.0555205 0.0436649
0.488443 0.0723337 0.0435163
0.482909 0.0600197 0.0623897
0.514849 0.0583291 0.0437028
0.491593 0.0402956 0.0444839
0.51339 0.0660608 0.0699022
0.499109 0.058879 0.0651401
0.508655 0.045967 0.066844
0.479256 0.0738791 0.0650837
0.478656 0.118474 0.044013
0.455928 0.0872496 0.0433897
0.452282 0.117292 0.0431184
0.469608 0.100135 0.0456888
0.455248 0.102634 0.0434778
0.446487 0.0928426 0.0548453
0.471005 0.0965497 0.0655954
0.447321 0.0843007 0.0680484
0.444021 0.107368 0.0566987
0.473604 0.0840271 0.0445179
0.46891 0.11928 0.0628789
0.44914 0.0777118 0.0545683
0.510357 0.104263 0.0633599
0.517894 0.0982846 0.042647
0.513406 0.118479 0.0647107
0.511851 0.0818993 0.0669216
0.510966 0.0822763 0.0444787
0.501524 0.0967649 0.0431788
0.485942 0.105611 0.04228
0.501974 0.114109 0.0429189
0.483981 0.101811 0.0657649
0.479855 0.0862662 0.0674033
0.490191 0.0892434 0.0435137
0.49496 0.0812876 0.0651609
0.496951 0.11616 0.066291
0.45409 0.0733475 0.0820594
0.466538 0.0516062 0.0823646
0.470946 0.0644311 0.08686
0.468439 0.0396652 0.0871141
0.492882 0.0454465 0.0949941
0.509481 0.0447333 0.0909274
0.51551 0.056904 0.0942324
0.507241 0.0703208 0.0950565
0.499971 0.055547 0.0954162
0.521559 0.0736458 0.0938215
0.488131 0.0626794 0.0834328
0.453023 0.101239 0.0913972
0.455934 0.101561 0.0723822
0.463411 0.0864498 0.0951788
0.451783 0.0875954 0.0804762
0.469889 0.0752722 0.0903279
0.486047 0.0840676 0.0950513
0.505078 0.107739 0.0897175
0.517018 0.0987082 0.0907345
0.520165 0.116724 0.0875086
0.493233 0.100969 0.0932434
0.501564 0.0953395 0.0741957
0.509123 0.0851605 0.0915295
0.49349 0.0752963 0.0917399
0.414331 0.146237 0.0563825
0.421711 0.150927 0.0709616
0.430625 0.124396 0.0645389
0.404927 0.156292 0.0504396
0.431798 0.129429 0.047266
0.422186 0.134865 0.0609544
0.434554 0.154931 0.0419341
0.425484 0.140904 0.0448719
0.416758 0.1537 0.0417038
0.390457 0.185123 0.0441772
0.394329 0.19524 0.0585974
0.38117 0.175247 0.0702016
0.375276 0.192104 0.0422817
0.376164 0.17409 0.04282
0.39433 0.160623 0.0583423
0.373039 0.171369 0.058006
0.36255 0.178945 0.0451716
0.39118 0.170996 0.08027
0.35856 0.196261 0.0438208
0.358444 0.176163 0.060518
0.363686 0.185181 0.0734912
0.385194 0.166708 0.0498583
0.399372 0.17056 0.043194
0.425998 0.180998 0.0414749
0.432537 0.168674 0.0494531
0.411489 0.160933 0.0755522
0.409774 0.184822 0.0598169
0.424692 0.192604 0.0753675
0.418216 0.193817 0.0448767
0.398248 0.162727 0.0710765
0.403542 0.195067 0.0415791
0.432567 0.189727 0.0633492
0.414375 0.170854 0.0449072
0.394018 0.18846 0.0760259
0.411716 0.203998 0.0722048
0.430309 0.174321 0.0703734
0.436377 0.159357 0.0694044
0.411504 0.175673 0.07287
0.463835 0.155712 0.0425257
0.431188 0.139102 0.0744591
0.448934 0.149835 0.0427043
0.448207 0.133327 0.0441998
0.44029 0.120076 0.0710751
0.446245 0.151378 0.0609231
0.464443 0.128158 0.0421061
0.463416 0.133293 0.0622518
0.437879 0.118452 0.049941
0.460912 0.155251 0.0647081
0.482511 0.157852 0.0632627
0.478929 0.142783 0.0678638
0.470554 0.144098 0.0448815
0.5028 0.143255 0.0434505
0.504203 0.137013 0.0639774
0.481024 0.118495 0.0677773
0.51756 0.151577 0.0446095
0.491167 0.131285 0.0660791
0.48803 0.151262 0.0475914
0.49571 0.126345 0.0444247
0.51808 0.156621 0.0593968
0.482301 0.134492 0.0424408
0.51693 0.121741 0.0442933
0.518185 0.136172 0.0427315
0.502976 0.159316 0.0757703
0.461889 0.197051 0.0547497
0.466067 0.172243 0.0632328
0.450301 0.202815 0.0780799
0.444097 0.178131 0.0618668
0.47718 0.193144 0.0559582
0.468751 0.188877 0.0474388
0.453561 0.16783 0.0418389
0.470801 0.173756 0.0422046
0.442958 0.18993 0.0412633
0.450779 0.182086 0.0448636
0.477043 0.192419 0.071804
0.463767 0.198133 0.0735723
0.48483 0.181108 0.0496091
0.488118 0.184588 0.0636111
0.496931 0.168929 0.0487346
0.50849 0.160722 0.0471053
0.485628 0.165597 0.0431327
0.5056 0.166281 0.0621594
0.495543 0.173362 0.0714594
0.476145 0.159324 0.0927036
0.451958 0.117045 0.0753763
0.474312 0.14212 0.0798697
0.487531 0.12615 0.0936807
0.462236 0.162183 0.0764744
0.485551 0.147975 0.0930654
0.448248 0.135406 0.0709694
0.510881 0.142421 0.0809798
0.502564 0.12437 0.0945037
0.499135 0.152737 0.0868496
0.511278 0.128454 0.0891012
0.499707 0.139977 0.0920899
0.467298 0.185622 0.0845766
0.451135 0.17625 0.0788227
0.454089 0.191113 0.0840874
0.472263 0.172179 0.0887351
0.489453 0.166774 0.0846731
0.483321 0.180672 0.0799762
0.529283 0.0658119 0.0645402
0.559094 0.0629913 0.062436
0.55285 0.0551832 0.0497586
0.555164 0.0775354 0.0720291
0.523044 0.0526925 0.0663016
0.541968 0.0650064 0.0434615
0.53108 0.0541017 0.0430128
0.525251 0.0706137 0.0436956
0.551717 0.0485518 0.0657991
0.548352 0.0425857 0.0513507
0.549836 0.0629397 0.0757247
0.555098 0.0688317 0.0475174
0.561404 0.0776306 0.0584885
0.555588 0.0912643 0.0642097
0.528627 0.085167 0.0442168
0.529442 0.0820743 0.0652128
0.547597 0.103436 0.0644998
0.541736 0.108779 0.0757787
0.523355 0.0952632 0.0655401
0.528229 0.113046 0.0452887
0.548921 0.100536 0.0522872
0.545063 0.0894251 0.0422846
0.55577 0.0851748 0.0488633
0.536497 0.102709 0.0441852
0.531821 0.0406064 0.0839056
0.54464 0.0784197 0.0807937
0.533924 0.0727408 0.0885421
0.529128 0.0571142 0.0883302
0.541838 0.0516834 0.0811603
0.531616 0.104686 0.087158
0.528797 0.0883983 0.0905254
0.540799 0.0935225 0.0818788
0.534221 0.121964 0.0526487
0.521703 0.144714 0.0694831
0.539743 0.122383 0.0659893
0.529821 0.132429 0.0741677
0.534223 0.134956 0.0603975
0.527236 0.145057 0.0535956
0.533042 0.120368 0.0803005
0.383049 0.230489 0.0638279
0.369765 0.200888 0.0545283
0.359766 0.239377 0.0431006
0.373278 0.216597 0.0407908
0.396 0.237471 0.0438358
0.380873 0.229822 0.0433409
0.363776 0.215152 0.0645654
0.398851 0.222685 0.0424988
0.387993 0.212642 0.0605616
0.359365 0.222506 0.0424031
0.388109 0.209902 0.0427959
0.433726 0.201564 0.042994
0.405577 0.226891 0.0623251
0.436142 0.226409 0.0510941
0.423796 0.228234 0.0736911
0.428716 0.235176 0.0594317
0.436295 0.205083 0.0835157
0.406064 0.210075 0.0451534
0.414849 0.240913 0.0757709
0.418024 0.20835 0.0583907
0.427705 0.217333 0.0421941
0.42033 0.229867 0.0454037
0.417945 0.22053 0.0867549
0.429971 0.217168 0.0802073
0.382004 0.258887 0.0464788
0.400244 0.263903 0.0727479
0.373339 0.246785 0.0648785
0.370622 0.262366 0.0675494
0.391021 0.272043 0.0604149
0.400793 0.263781 0.0550905
0.389558 0.245401 0.0640283
0.364712 0.255673 0.0443042
0.375481 0.244916 0.0427099
0.370508 0.269897 0.0421966
0.38083 0.275335 0.0505433
0.385346 0.277402 0.0723781
0.412078 0.256785 0.0680001
0.41685 0.242722 0.0465975
0.410149 0.255825 0.0502751
0.401523 0.24945 0.0442244
0.420919 0.247762 0.0607677
0.400293 0.213852 0.0717631
0.370969 0.240757 0.08164
0.368196 0.202299 0.0752653
0.401968 0.235204 0.085069
0.388426 0.223986 0.080292
0.380111 0.192463 0.0742483
0.404559 0.249001 0.0812317
0.369306 0.274823 0.0956516
0.383269 0.267124 0.0884379
0.382964 0.251142 0.0927433
0.393497 0.256657 0.0847422
0.378616 0.280809 0.0837274
0.369988 0.259809 0.0968632
0.443407 0.214466 0.072146
0.44304 0.212726 0.0478463
0.444714 0.219292 0.0598566
0.452356 0.206604 0.0577017
0.372585 0.288297 0.0571188
0.367121 0.284563 0.046453
0.373474 0.288633 0.070474
0.365167 0.288108 0.086352
0.155592 -0.284719 0.0621845
0.149426 -0.283947 0.0499708
0.179972 -0.284301 0.0706058
0.16274 -0.286389 0.0475698
0.191722 -0.289442 0.062641
0.190262 -0.289502 0.0479821
0.176417 -0.286598 0.0460875
0.169952 -0.287721 0.0606637
0.189515 -0.281476 0.0830209
0.229775 -0.289869 0.0694412
0.230648 -0.293392 0.0554698
0.21767 -0.289685 0.0479426
0.204739 -0.284703 0.0423129
0.203363 -0.293446 0.0554701
0.216048 -0.292118 0.0624149
0.243171 -0.287474 0.0511485
0.243505 -0.288529 0.0661624
0.269267 -0.284477 0.0564057
0.255836 -0.285004 0.0611039
0.223223 -0.279796 0.0926339
0.238657 -0.281249 0.0869178
0.284144 -0.284139 0.0573324
0.297791 -0.282451 0.0623252
0.310319 -0.281159 0.0656475
0.332756 -0.282301 0.0573249
0.0896305 -0.23985 0.0480658
0.100607 -0.26248 0.0641036
0.0850559 -0.242768 0.0629537
0.118164 -0.242427 0.0413733
0.106578 -0.260432 0.0497364
0.0933313 -0.253157 0.0538853
0.118731 -0.26721 0.0485041
0.113003 -0.26981 0.0641076
0.103423 -0.246124 0.0439537
0.111006 -0.258419 0.0761437
0.0954876 -0.252022 0.0721878
0.0604489 -0.211787 0.0492834
0.0781161 -0.228577 0.0791259
0.0537984 -0.201506 0.0693623
0.0763608 -0.202424 0.0437223
0.076077 -0.232311 0.0551936
0.0624677 -0.212155 0.0719384
0.0742518 -0.219415 0.0448604
0.0696941 -0.225287 0.0692476
0.0636314 -0.221314 0.058232
0.109193 -0.229003 0.0424988
0.112304 -0.207004 0.0635685
0.0918854 -0.239086 0.0782358
0.0875568 -0.226255 0.0440299
0.0908099 -0.213962 0.0636434
0.091151 -0.209829 0.0429921
0.114109 -0.231348 0.0630982
0.107001 -0.212986 0.043129
0.101099 -0.222719 0.0650347
0.115023 -0.242782 0.0949472
0.10687 -0.246332 0.0833889
0.0751609 -0.219263 0.0895153
0.0707771 -0.207333 0.0945536
0.0831481 -0.213965 0.0999945
0.0868128 -0.202333 0.079588
0.103456 -0.208297 0.0823312
0.089348 -0.229572 0.0883232
0.11278 -0.218969 0.105241
0.103535 -0.208721 0.105094
0.0911592 -0.20102 0.104467
0.0967234 -0.223142 0.100016
0.107946 -0.232711 0.0996402
0.115542 -0.217605 0.0817138
0.126064 -0.263391 0.0739143
0.14124 -0.256106 0.0656451
0.124349 -0.244803 0.0565384
0.153543 -0.247676 0.0426704
0.130528 -0.27554 0.0493961
0.131419 -0.259394 0.0425324
0.144146 -0.271093 0.041832
0.140105 -0.280401 0.0610636
0.126309 -0.275205 0.062742
0.150539 -0.271491 0.0712394
0.156526 -0.26252 0.0463477
0.138257 -0.245725 0.0443917
0.143892 -0.241412 0.065892
0.18273 -0.266113 0.0745168
0.168991 -0.271614 0.0427192
0.169649 -0.245113 0.0436385
0.174891 -0.2574 0.057773
0.166629 -0.246973 0.0767317
0.192935 -0.256557 0.0553996
0.1623 -0.258448 0.066827
0.182346 -0.251771 0.0425299
0.185523 -0.273963 0.0433098
0.183642 -0.247832 0.0755514
0.197488 -0.248072 0.0770999
0.148439 -0.230817 0.0426979
0.125218 -0.20621 0.0710382
0.121151 -0.217455 0.0460331
0.130842 -0.202244 0.046145
0.147253 -0.215898 0.0654267
0.15849 -0.236334 0.0567279
0.143588 -0.203751 0.076474
0.15386 -0.20628 0.0452571
0.1211 -0.2349 0.0760623
0.132834 -0.226249 0.0423611
0.133034 -0.225771 0.0641417
0.142225 -0.213579 0.0422755
0.17778 -0.233758 0.0706358
0.198738 -0.21797 0.0632135
0.177501 -0.215245 0.0428453
0.171551 -0.216868 0.0770662
0.176892 -0.198816 0.051907
0.163085 -0.221413 0.0456154
0.167329 -0.203592 0.0653843
0.195386 -0.23243 0.0443045
0.177736 -0.225874 0.0572986
0.194173 -0.199336 0.0749569
0.197994 -0.233226 0.0613776
0.182934 -0.236466 0.0426635
0.165667 -0.204174 0.0458162
0.180799 -0.200103 0.0689723
0.190679 -0.207436 0.0445402
0.141434 -0.253218 0.0987588
0.130621 -0.257397 0.0860905
0.128164 -0.248056 0.0965141
0.151452 -0.241759 0.0797154
0.157403 -0.270657 0.0850191
0.143529 -0.263741 0.0894538
0.154847 -0.260606 0.097658
0.162781 -0.245874 0.100085
0.176183 -0.252807 0.100047
0.187844 -0.262694 0.102418
0.171671 -0.278531 0.0823163
0.190607 -0.246358 0.0993599
0.180718 -0.276234 0.0949532
0.194345 -0.276531 0.0975387
0.167967 -0.267954 0.0954896
0.150812 -0.238162 0.102615
0.138817 -0.207367 0.0891614
0.148716 -0.22272 0.10052
0.122479 -0.230221 0.104359
0.13672 -0.23336 0.104092
0.134814 -0.227678 0.08134
0.158085 -0.22261 0.0933016
0.156985 -0.223349 0.0774429
0.126594 -0.207252 0.101094
0.136574 -0.216793 0.10189
0.183003 -0.236677 0.0969424
0.196431 -0.225326 0.0849896
0.181435 -0.223063 0.0895934
0.1701 -0.230637 0.0970679
0.186228 -0.210696 0.0816527
0.0531377 -0.174496 0.0702105
0.0592078 -0.200628 0.0442599
0.051052 -0.174479 0.0452484
0.0732295 -0.198249 0.06942
0.0665787 -0.182395 0.0652657
0.0768666 -0.169787 0.0707267
0.040725 -0.187915 0.0551874
0.0596384 -0.186709 0.0428048
0.069887 -0.173381 0.044601
0.0439285 -0.19042 0.0753404
0.0592794 -0.160245 0.0427945
0.050097 -0.199096 0.0549965
0.0511465 -0.159901 0.0773973
0.11495 -0.195951 0.0422974
0.0997423 -0.196659 0.0605567
0.0822499 -0.186699 0.0438004
0.111007 -0.165744 0.0763918
0.112685 -0.168293 0.0575039
0.0843842 -0.187259 0.0608769
0.0847835 -0.171824 0.0436019
0.098074 -0.177557 0.0727803
0.101589 -0.173124 0.0450526
0.112094 -0.180735 0.047023
0.0838559 -0.159722 0.0613303
0.0977247 -0.193051 0.0430049
0.0651665 -0.127796 0.0430399
0.054101 -0.136661 0.0666709
0.0725873 -0.139388 0.05575
0.0456545 -0.154881 0.0457909
0.0643855 -0.157986 0.0640635
0.0439932 -0.152649 0.0655831
0.0513031 -0.13448 0.0477289
0.0428887 -0.14147 0.0731606
0.0633513 -0.121238 0.0665096
0.0749859 -0.139747 0.0782091
0.0673254 -0.150436 0.0432101
0.109048 -0.154593 0.0690378
0.0963358 -0.158617 0.0425032
0.103417 -0.141653 0.0625372
0.0808977 -0.149548 0.0424096
0.0899202 -0.121131 0.0696211
0.0966079 -0.144435 0.0477662
0.107136 -0.154322 0.053313
0.094802 -0.148772 0.0764532
0.0912268 -0.13644 0.0730002
0.0953797 -0.130409 0.0552431
0.0824995 -0.12858 0.0448393
0.078749 -0.193831 0.103582
0.039919 -0.180934 0.0877328
0.0487504 -0.168109 0.100248
0.056429 -0.180316 0.0997092
0.0677053 -0.186852 0.10243
0.0639448 -0.165143 0.100941
0.0517191 -0.190909 0.0879148
0.0622944 -0.199052 0.0897569
0.0757993 -0.170593 0.101767
0.0771008 -0.180598 0.08371
0.116419 -0.177931 0.0818139
0.096695 -0.160495 0.0823416
0.0864528 -0.166643 0.0927238
0.0875968 -0.178263 0.104077
0.101005 -0.187246 0.103882
0.11447 -0.196121 0.102076
0.0984942 -0.192096 0.0807463
0.0999366 -0.174357 0.096941
0.113284 -0.18315 0.0953876
0.0700652 -0.15555 0.0808772
0.0775505 -0.125582 0.0837979
0.0522053 -0.14084 0.096261
0.0568911 -0.153372 0.0995848
0.0622361 -0.128035 0.0910844
0.0653576 -0.142946 0.0914069
0.143069 -0.190741 0.0666095
0.133279 -0.182316 0.0578802
0.123216 -0.179989 0.0670939
0.126789 -0.186283 0.0472074
0.141264 -0.190732 0.0517878
0.153272 -0.19759 0.0629708
0.189564 -0.194547 0.0570074
0.12704 -0.195552 0.0927859
0.127599 -0.1899 0.079701
0.208084 -0.254742 0.0650438
0.218453 -0.264914 0.0448205
0.221328 -0.255744 0.0744831
0.204143 -0.278573 0.0667163
0.213741 -0.242734 0.0442891
0.233184 -0.243163 0.060735
0.201692 -0.268872 0.044562
0.227723 -0.249074 0.0431649
0.235319 -0.263169 0.0430959
0.229294 -0.278958 0.04452
0.222032 -0.263754 0.0614478
0.203663 -0.253888 0.0419026
0.247779 -0.255717 0.0627483
0.276091 -0.281656 0.070621
0.241089 -0.266771 0.0707959
0.252683 -0.258833 0.0420007
0.258459 -0.263064 0.0715063
0.25181 -0.242667 0.04168
0.262404 -0.277982 0.0456859
0.27757 -0.274711 0.0440054
0.274313 -0.256243 0.0570977
0.267543 -0.262619 0.0439419
0.246771 -0.275234 0.0430425
0.26612 -0.252649 0.0783425
0.256083 -0.24127 0.0622305
0.211352 -0.228051 0.0427646
0.238409 -0.237058 0.0451269
0.227703 -0.22429 0.0460069
0.239819 -0.216124 0.0427884
0.231344 -0.226176 0.0640021
0.223302 -0.213615 0.0607128
0.214337 -0.232109 0.0652852
0.217748 -0.202978 0.042829
0.205684 -0.214258 0.0435036
0.210587 -0.199801 0.0787124
0.25176 -0.202338 0.0448103
0.277687 -0.208419 0.0741509
0.277533 -0.234009 0.0451388
0.265943 -0.223875 0.0563004
0.254285 -0.219823 0.0437362
0.270369 -0.211875 0.0433592
0.264942 -0.238037 0.0424976
0.250504 -0.234351 0.0748184
0.275494 -0.23853 0.0704306
0.249723 -0.217238 0.0616428
0.203886 -0.248929 0.0977091
0.233787 -0.272972 0.100337
0.223254 -0.280068 0.0782118
0.208282 -0.277494 0.0949007
0.219216 -0.269999 0.104193
0.203685 -0.26456 0.104933
0.215752 -0.254761 0.101994
0.212454 -0.242477 0.0856347
0.229738 -0.256289 0.102765
0.20394 -0.268796 0.080211
0.235276 -0.253952 0.08074
0.236242 -0.243114 0.096504
0.273521 -0.252065 0.101867
0.259434 -0.25377 0.101566
0.262071 -0.270954 0.0939995
0.276327 -0.269614 0.0931902
0.253261 -0.279833 0.0828817
0.264537 -0.239341 0.097223
0.245106 -0.25401 0.10204
0.251073 -0.240423 0.0969819
0.268498 -0.279296 0.0817425
0.247779 -0.271831 0.0963469
0.213865 -0.225524 0.0826025
0.237075 -0.211309 0.082861
0.220423 -0.212009 0.0827665
0.239763 -0.225213 0.0864395
0.203612 -0.211737 0.083912
0.22852 -0.235939 0.0861772
0.27825 -0.237047 0.0965946
0.266621 -0.227035 0.0810834
0.264549 -0.210145 0.079561
0.251619 -0.203914 0.0803151
0.252854 -0.218667 0.0859803
0.306192 -0.24089 0.0416836
0.298037 -0.244806 0.0627843
0.28329 -0.252476 0.076979
0.298086 -0.239373 0.0787015
0.292284 -0.277591 0.0458905
0.31691 -0.25106 0.0468408
0.319851 -0.281693 0.0519117
0.307268 -0.253521 0.0756593
0.31184 -0.257331 0.0608677
0.294536 -0.255686 0.0423699
0.282398 -0.248265 0.0434286
0.288629 -0.261729 0.0642455
0.303169 -0.266736 0.0436802
0.306695 -0.279709 0.0483766
0.328574 -0.271272 0.0453781
0.340555 -0.252831 0.0622266
0.344661 -0.241563 0.0434185
0.346488 -0.279874 0.0609367
0.33045 -0.255162 0.043018
0.354848 -0.251317 0.0634059
0.345242 -0.26355 0.0424926
0.343805 -0.277152 0.0484306
0.359521 -0.274722 0.0543983
0.332049 -0.263362 0.0718942
0.355836 -0.274963 0.0696205
0.322886 -0.277514 0.0681477
0.300235 -0.209542 0.0423037
0.314539 -0.2086 0.0428811
0.293313 -0.215699 0.0589156
0.308035 -0.223282 0.0636998
0.307012 -0.228496 0.0481551
0.286047 -0.212017 0.0427636
0.317241 -0.22854 0.0753021
0.284516 -0.225578 0.0675333
0.291809 -0.232481 0.0428593
0.290759 -0.200269 0.0759864
0.33113 -0.210833 0.043688
0.355448 -0.23278 0.0635929
0.333862 -0.22624 0.0717949
0.348224 -0.210099 0.0438505
0.328274 -0.238841 0.0625651
0.347424 -0.22659 0.0435136
0.351518 -0.215885 0.0646383
0.328035 -0.238882 0.0413598
0.320106 -0.212712 0.0592079
0.357392 -0.223451 0.0796208
0.330358 -0.225755 0.0493652
0.340651 -0.204801 0.0655433
0.29049 -0.267625 0.0937208
0.304194 -0.265599 0.0960519
0.300399 -0.274567 0.0825851
0.313923 -0.272965 0.0866384
0.315292 -0.243772 0.10184
0.285874 -0.277107 0.0812946
0.317965 -0.262556 0.098588
0.301354 -0.24734 0.101589
0.287232 -0.250449 0.101688
0.321749 -0.249723 0.0795006
0.342192 -0.26683 0.0937894
0.357259 -0.263959 0.0950814
0.350277 -0.269233 0.0817468
0.350716 -0.245056 0.082925
0.329302 -0.24006 0.104063
0.33213 -0.258532 0.100967
0.336701 -0.240975 0.0818604
0.32769 -0.269661 0.0889989
0.346463 -0.254315 0.103294
0.303157 -0.219068 0.0911098
0.291287 -0.235541 0.0995524
0.299562 -0.208131 0.0839986
0.315949 -0.211851 0.0845215
0.289141 -0.22288 0.0834335
0.305542 -0.230363 0.0993874
0.342701 -0.236169 0.106046
0.320537 -0.228349 0.0983166
0.355679 -0.199532 0.0942487
0.344451 -0.202796 0.0878021
0.349184 -0.222251 0.101821
0.336821 -0.216348 0.0851155
0.334498 -0.224423 0.098642
0.356589 -0.234962 0.106684
0.228707 -0.199 0.0771894
0.227717 -0.19048 0.0489013
0.230661 -0.188176 0.0638254
0.236356 -0.199354 0.0424846
0.21756 -0.190077 0.0693619
0.214877 -0.189451 0.0526557
0.202576 -0.198356 0.0467678
0.203032 -0.191231 0.0633259
0.259942 -0.196834 0.0694429
0.263907 -0.196716 0.0511949
0.243216 -0.192077 0.0551468
0.272411 -0.193916 0.0632356
0.276886 -0.197983 0.0453653
0.244482 -0.194803 0.0697898
0.287536 -0.19054 0.0487558
0.302811 -0.188898 0.0716099
0.311486 -0.198188 0.0788799
0.301347 -0.191696 0.0445083
0.310366 -0.183765 0.0573844
0.2869 -0.189709 0.0667251
0.316748 -0.189693 0.047285
0.296072 -0.18363 0.0576223
0.338662 -0.190842 0.0781452
0.325764 -0.198538 0.0766646
0.341747 -0.194259 0.044359
0.350822 -0.173328 0.0579498
0.345646 -0.179791 0.0705536
0.351103 -0.184623 0.0462056
0.31976 -0.18905 0.0656618
0.326785 -0.19457 0.0424634
0.33946 -0.183486 0.0565532
0.351348 -0.186704 0.085423
0.0403354 -0.0991143 0.0565312
0.0451668 -0.0838214 0.0666049
0.0744755 -0.0813297 0.0679536
0.0611242 -0.0958164 0.0437676
0.0712571 -0.0999044 0.0766807
0.0524278 -0.115529 0.0673346
0.07723 -0.0930682 0.0434515
0.0497967 -0.118833 0.0426172
0.0464039 -0.0919285 0.0415073
0.0613241 -0.110429 0.0462986
0.0604577 -0.0934958 0.0658889
0.07786 -0.11492 0.0429917
0.0817782 -0.111722 0.0785622
0.0844529 -0.102289 0.0521772
0.0827854 -0.0864504 0.0560549
0.0898549 -0.116528 0.0534585
0.0844373 -0.105388 0.0664017
0.0759428 -0.0781057 0.0434872
0.0684595 -0.0651782 0.0467982
0.0424402 -0.0733766 0.0447058
0.0680149 -0.0454517 0.0518565
0.0578128 -0.0788583 0.0447103
0.0438225 -0.0568864 0.0450592
0.0731418 -0.0649714 0.0651083
0.079594 -0.071815 0.0553037
0.0455298 -0.0623152 0.0606051
0.0583616 -0.0545602 0.0437951
0.0649623 -0.0723217 0.0765796
0.0569942 -0.0562131 0.0791668
0.0664677 -0.0519454 0.0676721
0.0551311 -0.0841117 0.081611
0.0698255 -0.112591 0.088058
0.0448363 -0.101529 0.0878853
0.058713 -0.103424 0.0868143
0.0521162 -0.117859 0.0898971
0.0475541 -0.0434673 0.0822493
0.052962 -0.0699479 0.0846629
0.0429486 -0.0594008 0.0855707
0.0560743 -0.0330835 0.0759074
0.0416627 -0.0363663 0.0591958
0.0674628 -0.0304961 0.0514048
0.0539403 -0.00695617 0.0475736
0.063316 -0.0237321 0.0668844
0.0554132 -0.0227972 0.0426949
0.0674405 -0.0376445 0.0660009
0.0429463 -0.0140229 0.0755608
0.0553837 -0.00931418 0.0660511
0.0634598 -0.0162433 0.0541022
0.0567884 -0.0392871 0.0427546
0.0417172 0.0158497 0.0588356
0.0445447 0.00254619 0.0715678
0.051114 0.00412792 0.058163
0.0425038 0.00290398 0.0454271
0.0435017 -0.0283667 0.0815933
0.376154 -0.254612 0.0445433
0.372984 -0.267657 0.0533074
0.397414 -0.243783 0.0734093
0.361674 -0.261536 0.0446964
0.386061 -0.259407 0.0558899
0.37854 -0.267544 0.0673767
0.360488 -0.244663 0.043566
0.366195 -0.246175 0.0760069
0.388638 -0.25692 0.0708797
0.39196 -0.247943 0.0484894
0.366832 -0.269846 0.0766936
0.404016 -0.244468 0.0604552
0.375838 -0.238554 0.0435037
0.373838 -0.232285 0.063517
0.392622 -0.204629 0.0791544
0.375101 -0.215243 0.0435664
0.362106 -0.206901 0.0434543
0.36695 -0.20811 0.065174
0.38481 -0.21282 0.0628479
0.389966 -0.208106 0.0421465
0.384967 -0.23295 0.068299
0.363463 -0.226182 0.0431211
0.389687 -0.232091 0.0450605
0.400546 -0.222281 0.043898
0.432301 -0.210952 0.0753331
0.416157 -0.231979 0.0467493
0.399371 -0.205386 0.064221
0.432865 -0.214305 0.0482888
0.407071 -0.219156 0.0680322
0.427402 -0.226464 0.0561722
0.408212 -0.207599 0.0439425
0.424922 -0.224024 0.0695981
0.415797 -0.235553 0.0624094
0.421355 -0.218274 0.0431029
0.405309 -0.239797 0.0477236
0.379779 -0.262355 0.0823639
0.386205 -0.252114 0.0921354
0.361713 -0.251322 0.10408
0.376723 -0.245768 0.103516
0.372513 -0.259123 0.0956621
0.398955 -0.211621 0.102169
0.386767 -0.2171 0.104549
0.399141 -0.228045 0.0996479
0.370145 -0.211458 0.0802714
0.370541 -0.232748 0.0849567
0.359943 -0.211673 0.101318
0.397883 -0.240543 0.0876822
0.375844 -0.206057 0.102914
0.386169 -0.218607 0.0824866
0.389199 -0.239187 0.09972
0.372349 -0.218868 0.106575
0.370512 -0.232108 0.106409
0.417935 -0.204458 0.0938852
0.431634 -0.200995 0.0870032
0.408105 -0.229905 0.0860987
0.419974 -0.21968 0.0829639
0.411401 -0.218384 0.095223
0.441779 -0.206548 0.0665637
0.443882 -0.20885 0.0530831
0.361718 -0.171541 0.0704711
0.374974 -0.198634 0.0441895
0.380605 -0.189049 0.0583403
0.377423 -0.183508 0.0430649
0.366081 -0.16656 0.0577188
0.378249 -0.17261 0.0758692
0.398273 -0.194268 0.0424011
0.381503 -0.159216 0.0558353
0.383811 -0.190155 0.0731701
0.389012 -0.164559 0.0684134
0.361647 -0.176952 0.0454648
0.360439 -0.194396 0.0649835
0.390741 -0.170526 0.0435939
0.37462 -0.168297 0.0456403
0.431442 -0.167136 0.0429074
0.413982 -0.160906 0.0449437
0.41132 -0.191974 0.0775861
0.430232 -0.159713 0.0671524
0.406664 -0.171203 0.0687488
0.40475 -0.188268 0.0637183
0.422153 -0.171644 0.0651661
0.415243 -0.192761 0.0435152
0.429912 -0.184012 0.0681089
0.430897 -0.197675 0.0443876
0.40293 -0.179886 0.0473124
0.418057 -0.176923 0.0437916
0.420712 -0.198487 0.0656714
0.436255 -0.182366 0.0466807
0.395143 -0.151821 0.0615345
0.393916 -0.156413 0.0470801
0.414319 -0.145721 0.0778201
0.425667 -0.134936 0.0780874
0.424032 -0.149818 0.0452068
0.42759 -0.128421 0.0566963
0.408617 -0.144822 0.0638406
0.434457 -0.140376 0.0435487
0.404259 -0.150141 0.049565
0.419187 -0.138756 0.0574979
0.365545 -0.178294 0.0821211
0.365815 -0.188518 0.0912201
0.388065 -0.176778 0.0855089
0.378417 -0.194452 0.0964827
0.390559 -0.188081 0.096489
0.430278 -0.166598 0.0931413
0.412038 -0.189166 0.0983905
0.39991 -0.17738 0.0937677
0.409219 -0.16806 0.0918325
0.421357 -0.178704 0.095978
0.406038 -0.158775 0.0807609
0.432905 -0.188522 0.0936773
0.40211 -0.198083 0.100038
0.42792 -0.145258 0.0887092
0.436739 -0.125288 0.0788667
0.417228 -0.156044 0.0896903
0.453378 -0.199279 0.060579
0.463287 -0.187683 0.0603149
0.479513 -0.161104 0.0776867
0.442895 -0.166642 0.0719243
0.469541 -0.171261 0.0738882
0.447083 -0.169495 0.0492204
0.449528 -0.183418 0.070362
0.458385 -0.191614 0.0483888
0.472991 -0.177957 0.0594426
0.446736 -0.196143 0.0434798
0.460584 -0.177764 0.0452159
0.470159 -0.16786 0.0448601
0.483599 -0.169131 0.0557941
0.490526 -0.163349 0.0687194
0.468444 -0.135227 0.0753071
0.452537 -0.142886 0.0433606
0.457341 -0.132655 0.0627445
0.464051 -0.152667 0.0434626
0.441118 -0.127071 0.0436693
0.473592 -0.138793 0.0433444
0.454386 -0.146111 0.0720143
0.439956 -0.14595 0.0656147
0.460619 -0.158293 0.064448
0.460171 -0.127349 0.0429676
0.442975 -0.15544 0.0453173
0.473597 -0.141126 0.0611674
0.491187 -0.146227 0.0436939
0.510836 -0.145678 0.0565725
0.509871 -0.143462 0.0725418
0.487862 -0.128923 0.0424928
0.503313 -0.138913 0.0466015
0.502218 -0.154794 0.0662768
0.480905 -0.157263 0.0431615
0.484366 -0.126097 0.0597215
0.494417 -0.159131 0.0543245
0.50545 -0.126425 0.0428709
0.494384 -0.133913 0.0713891
0.51985 -0.119686 0.0445497
0.44258 -0.177917 0.0925579
0.45264 -0.168348 0.0928422
0.461794 -0.170491 0.0844141
0.441941 -0.19027 0.0826907
0.470157 -0.123205 0.0993764
0.449636 -0.12408 0.0884692
0.463772 -0.158681 0.0922945
0.438969 -0.134826 0.0892117
0.469371 -0.146354 0.0953141
0.452298 -0.146048 0.0950005
0.458969 -0.133482 0.0966691
0.441382 -0.155953 0.092738
0.494875 -0.135719 0.0938872
0.49269 -0.122606 0.101666
0.513983 -0.125956 0.0847185
0.49078 -0.151102 0.0790885
0.481032 -0.134534 0.0995292
0.484175 -0.14534 0.0904753
0.504816 -0.125809 0.0937251
0.52157 -0.134808 0.0748116
0.526874 -0.126822 0.0512253
0.53321 -0.127427 0.0640096
0.521946 -0.138588 0.0598737
0.528076 -0.122202 0.0796194
0.435074 -0.116894 0.0543983
0.435677 -0.118389 0.0671479
0.473357 -0.0896926 0.0621991
0.455409 -0.0875756 0.0490129
0.471686 -0.090462 0.0444289
0.469599 -0.117422 0.0760192
0.467518 -0.114333 0.0432779
0.452291 -0.111472 0.0713014
0.450452 -0.0891595 0.0664851
0.444382 -0.106874 0.0572178
0.471248 -0.113853 0.0595202
0.454011 -0.0974209 0.078702
0.449399 -0.112629 0.0436345
0.457591 -0.100739 0.0449794
0.495465 -0.105987 0.0630531
0.491281 -0.0852117 0.0606995
0.507536 -0.11822 0.0644213
0.509941 -0.105299 0.0430715
0.495912 -0.0961681 0.0431106
0.513586 -0.103801 0.0647125
0.508888 -0.0836242 0.0718285
0.48115 -0.103378 0.0428096
0.493113 -0.112756 0.0427922
0.508132 -0.0837694 0.0480786
0.479257 -0.0982948 0.0715774
0.487868 -0.119298 0.0787402
0.507929 -0.100358 0.0789105
0.449509 -0.0605057 0.0433282
0.477092 -0.0652195 0.0446086
0.46912 -0.0469638 0.0607736
0.442213 -0.0522972 0.0589607
0.443543 -0.0667105 0.0554702
0.448844 -0.0466457 0.0448404
0.471851 -0.0692704 0.0616741
0.448117 -0.0616647 0.0709962
0.465304 -0.060796 0.0424756
0.44638 -0.0782332 0.0615047
0.452831 -0.0747395 0.0777562
0.455405 -0.0744087 0.0449907
0.447472 -0.0435658 0.0712249
0.499703 -0.0759202 0.0411872
0.482889 -0.0793614 0.0417857
0.504731 -0.0603833 0.0450093
0.493514 -0.0438054 0.0637953
0.486223 -0.0404725 0.0424808
0.479874 -0.0560174 0.068534
0.519494 -0.0566968 0.042381
0.504176 -0.0426972 0.0426548
0.49044 -0.068259 0.0622997
0.490104 -0.0550166 0.0431099
0.508351 -0.063207 0.0619924
0.459595 -0.11305 0.0941171
0.477717 -0.0887321 0.0977571
0.46996 -0.101814 0.0988025
0.460034 -0.0850195 0.0861898
0.459228 -0.0989977 0.0910593
0.509985 -0.0980732 0.102992
0.504097 -0.111625 0.099873
0.518216 -0.0836655 0.105251
0.51843 -0.105988 0.0923299
0.48294 -0.0821377 0.0811454
0.48117 -0.111738 0.101456
0.486939 -0.0846449 0.104971
0.501215 -0.0857958 0.108888
0.488008 -0.103757 0.0821809
0.501257 -0.0810071 0.086092
0.492336 -0.0994685 0.104352
0.460997 -0.0608339 0.0815171
0.476879 -0.0525304 0.0926638
0.468246 -0.0724808 0.0842033
0.467563 -0.0406379 0.0921191
0.458099 -0.045847 0.0824369
0.483792 -0.0631637 0.0980608
0.519711 -0.0415713 0.105711
0.508545 -0.0716169 0.10878
0.512314 -0.0561337 0.106423
0.516577 -0.0553221 0.0822453
0.495644 -0.0560652 0.105327
0.494756 -0.0423471 0.102576
0.501449 -0.0514362 0.0836581
0.49225 -0.0710247 0.106807
0.515759 -0.0719715 0.0820861
0.493188 -0.0659314 0.082402
0.443771 -0.0371639 0.0548249
0.447074 -0.0278311 0.0652891
0.458363 -0.00148266 0.0510583
0.47585 -0.0229215 0.0629051
0.47413 -0.00769148 0.0774763
0.4779 -0.0377642 0.0708712
0.450594 -0.023949 0.0497587
0.458802 -0.0367112 0.0424058
0.454164 -0.0306643 0.078082
0.461358 -0.0153199 0.07313
0.473484 -0.0212503 0.0425278
0.45275 -0.0134262 0.0598109
0.460086 -0.0136218 0.0451146
0.473244 -0.0373961 0.0464713
0.510294 -0.000414067 0.0784685
0.515803 -0.000548116 0.0641236
0.511039 -0.0392614 0.0639211
0.504833 -0.0138614 0.0433252
0.509443 -0.0228623 0.0620186
0.492317 -0.0182487 0.0637671
0.498374 -0.038034 0.0786612
0.497821 -0.0283192 0.0433467
0.479658 -0.00196339 0.044449
0.487837 -0.0151989 0.0430231
0.495838 -0.000898353 0.0649382
0.459382 0.0321369 0.0745737
0.459926 0.00631615 0.0634807
0.456786 0.0216028 0.0608278
0.466535 0.00719103 0.0458437
0.478492 0.00239365 0.0647023
0.462388 0.0280736 0.0489279
0.457181 0.037573 0.0607962
0.473677 0.0203134 0.0445388
0.461075 0.0169741 0.0750377
0.503708 0.000942681 0.0442438
0.481764 0.0231239 0.064778
0.507358 0.0304655 0.0431212
0.502822 0.0298682 0.0652978
0.48941 0.0101551 0.0440444
0.481261 0.039015 0.0639644
0.505994 0.0156974 0.0432087
0.511826 0.0157407 0.0635635
0.489276 0.025376 0.0436836
0.492585 0.0222627 0.0750967
0.472549 -0.0269907 0.0952767
0.465033 -0.0230687 0.085518
0.482279 -0.00797564 0.0995142
0.507251 -0.0339171 0.103954
0.504048 -0.0201452 0.104326
0.516066 -0.025247 0.0818994
0.485437 -0.0227773 0.102683
0.494388 -0.0114752 0.105432
0.502663 -0.0139186 0.0833768
0.490982 -0.0234594 0.0804525
0.481066 -0.0388316 0.100253
0.469611 0.0119664 0.0863407
0.477203 0.000513124 0.0910284
0.466149 0.0259575 0.0890082
0.478211 0.0206891 0.0973278
0.504758 0.0204192 0.0986441
0.512851 0.0100413 0.101562
0.479234 0.0364095 0.095101
0.488654 0.0111014 0.100393
0.517604 0.0328313 0.0821824
0.493858 0.0304385 0.0951145
0.498364 0.00143912 0.103108
0.518055 0.0208815 0.0927197
0.495489 0.00838039 0.078768
0.53664 -0.112744 0.0551907
0.52258 -0.0864525 0.0658811
0.529132 -0.10639 0.0465295
0.543637 -0.0965886 0.0588811
0.538269 -0.113854 0.0701375
0.537746 -0.0897004 0.047468
0.522244 -0.0927693 0.0424865
0.540877 -0.0989798 0.0748258
0.546617 -0.085683 0.0703944
0.547375 -0.0802853 0.0567169
0.523452 -0.0519859 0.0632816
0.549105 -0.0599097 0.0710459
0.525004 -0.0687151 0.0645687
0.54147 -0.0732248 0.0474168
0.524515 -0.0771982 0.0438882
0.551336 -0.0458425 0.0638189
0.548046 -0.0623203 0.057175
0.545501 -0.0471438 0.051786
0.533825 -0.0451454 0.0432374
0.544162 -0.0731292 0.0778399
0.534105 -0.0620887 0.0424428
0.525534 -0.0921596 0.0948259
0.530669 -0.107863 0.0823458
0.537259 -0.0860645 0.0843767
0.543779 -0.0451696 0.079085
0.534972 -0.0634034 0.0957856
0.524102 -0.0675385 0.105525
0.528769 -0.0515467 0.101545
0.531941 -0.0782954 0.0964058
0.541586 -0.0591173 0.0842395
0.524371 -0.0149097 0.0663754
0.520464 -0.0366344 0.0442837
0.538436 1.48226e-05 0.0459752
0.5463 -0.0334519 0.0717944
0.52088 -0.00482729 0.0430126
0.546034 -0.0311233 0.0579049
0.536932 -0.0141128 0.0473001
0.536247 -0.0293291 0.047405
0.541615 -0.00841328 0.0726857
0.544318 -0.00653448 0.0570964
0.521776 -0.0222945 0.0430109
0.541086 -0.0219784 0.0726816
0.547803 0.0155571 0.0594219
0.522164 0.03566 0.0547207
0.524324 0.0201678 0.0695912
0.547264 0.0267928 0.0674632
0.529713 0.0253423 0.0425463
0.544756 0.0378621 0.0762809
0.524335 0.0110042 0.0450858
0.546499 0.0278224 0.0504858
0.53575 0.0395634 0.0439619
0.537348 0.0255504 0.0787219
0.543811 0.00507507 0.0688077
0.541607 0.0136443 0.0464401
0.521618 -0.000438915 0.101043
0.520353 -0.014007 0.102503
0.531672 -0.006206 0.091768
0.531653 -0.021773 0.0916695
0.524788 -0.0280033 0.103177
0.524877 -0.0403067 0.0759248
0.531897 -0.0376766 0.0937765
0.535635 0.0043322 0.0814034
0.527889 0.0105566 0.0923261
-0.0429923 0.0440173 0.0482978
-0.0424891 0.051765 0.062568
-0.0198389 0.0519785 0.0759894
-0.0317166 0.071223 0.0688033
-0.00670539 0.056619 0.0435262
-0.00319398 0.0754275 0.061513
-0.0322162 0.0440185 0.0712435
-0.0218738 0.0718217 0.0440434
-0.039706 0.0642501 0.0590835
-0.0262725 0.0409562 0.0432973
-0.0360763 0.075471 0.0521041
-0.0358546 0.0555206 0.0455946
-0.0114281 0.0631625 0.0656294
-0.0198855 0.0564685 0.0443032
0.0319395 0.0725857 0.0428458
0.00760286 0.0523453 0.0753159
0.0278329 0.0592226 0.0457891
0.0294276 0.0640962 0.0732931
0.0434167 0.0550554 0.0648408
0.00409262 0.0646334 0.0805705
0.0113046 0.0522261 0.0604339
0.0387374 0.0503811 0.0490359
0.0319566 0.0483923 0.0741662
0.0019611 0.0709008 0.0445781
0.0189359 0.0710626 0.063869
0.0413284 0.040948 0.0633924
0.00587632 0.0478631 0.0435763
0.014062 0.0615299 0.0443245
-0.0153618 0.120332 0.0695366
-0.027911 0.0980953 0.053567
-0.00249829 0.0844924 0.0446611
-0.0166328 0.105669 0.0764489
-0.0276863 0.0846544 0.0457441
-0.0229805 0.108938 0.0632655
-0.0246287 0.0940627 0.0704924
-0.0148266 0.0932025 0.0430133
-0.0331213 0.0856049 0.0626989
-0.00651735 0.114222 0.0460317
-0.0166874 0.106695 0.0487504
0.0211723 0.0848955 0.0428457
0.0150547 0.117188 0.0655958
0.00811144 0.108165 0.0431644
0.00465923 0.105232 0.0647451
0.0389935 0.0872364 0.0431275
0.00889787 0.0932246 0.0442209
0.0298089 0.107321 0.0656385
0.0372062 0.0866293 0.0650744
0.0306726 0.1154 0.0457823
0.00205409 0.090936 0.0648819
0.0198936 0.0871765 0.0649459
