0.0627284 0.0938145 0.0684471
0.0649524 0.107196 0.0477604
0.0394592 0.0815004 0.0553648
0.0718896 0.117648 0.0443277
0.0418726 0.10502 0.0449819
0.0410911 0.11125 0.0659257
0.0510927 0.116842 0.0427738
0.0511866 0.0867651 0.0603761
0.0594316 0.0962043 0.0529021
0.0686144 0.106723 0.0768668
0.0710745 0.101778 0.0589863
0.0496742 0.0909126 0.0759675
0.0892994 0.116098 0.0601906
0.0817744 0.11343 0.0713806
0.0845202 0.116815 0.0495195
0.0544519 0.105484 0.0806849
0.0552264 0.120131 0.0805137
0.0711579 0.151014 0.0462893
0.0416807 0.132814 0.0424839
0.0769546 0.144249 0.0675951
0.0585289 0.131697 0.0452189
0.0536979 0.124313 0.0646982
0.0398115 0.15844 0.0753291
0.0731868 0.135259 0.0434061
0.0572091 0.155024 0.0591556
0.0641636 0.137601 0.0676088
0.0506695 0.146327 0.0462337
0.108577 0.120411 0.0690295
0.101044 0.135348 0.0454729
0.0914264 0.153405 0.0735719
0.120121 0.127452 0.0487652
0.0827472 0.160318 0.0634342
0.107731 0.122303 0.0542036
0.0909555 0.127062 0.042059
0.087194 0.144461 0.0439581
0.107571 0.151614 0.0443361
0.112307 0.144007 0.0677357
0.0884073 0.134242 0.0643663
0.105435 0.156706 0.0626648
0.0717764 0.198342 0.047392
0.079387 0.177046 0.0634455
0.0410662 0.16178 0.0429065
0.0564008 0.195319 0.0661172
0.0638282 0.168858 0.0640219
0.0657219 0.193268 0.0774251
0.0544892 0.19329 0.0528139
0.073669 0.164953 0.0424387
0.0573239 0.166246 0.0428206
0.0438198 0.184273 0.0642624
0.0763633 0.18165 0.0424787
0.0540531 0.184146 0.0777783
0.0508592 0.180986 0.0444069
0.0614407 0.190478 0.0433665
0.0450348 0.172576 0.0765929
0.119268 0.193215 0.0604568
0.111147 0.199387 0.0438604
0.10512 0.172376 0.0664218
0.096206 0.182417 0.0643592
0.108473 0.182054 0.0433048
0.120338 0.165187 0.065408
0.0946338 0.160189 0.0423568
0.0892705 0.173748 0.0443553
0.111184 0.167314 0.0432719
0.0956501 0.191555 0.0439095
0.0691227 0.121488 0.0839431
0.0598018 0.143614 0.0836805
0.0760024 0.13223 0.0885461
0.0685353 0.156799 0.0867682
0.046841 0.145238 0.0824738
0.0529315 0.159941 0.0844448
0.090327 0.158673 0.0915357
0.102035 0.124291 0.0802501
0.0964378 0.144648 0.0961656
0.0828062 0.143922 0.0927411
0.0926141 0.130237 0.0923001
0.107846 0.151678 0.0917253
0.106636 0.136317 0.0881384
0.0867253 0.120139 0.0831831
0.0712698 0.18301 0.0843174
0.0806606 0.171167 0.0866066
0.0658106 0.169669 0.0869465
0.101535 0.184493 0.0858327
0.118807 0.161109 0.0899022
0.119434 0.188464 0.0891345
0.0875495 0.186621 0.080746
0.114232 0.175807 0.0920593
0.107172 0.197085 0.0808083
0.101793 0.168498 0.0903633
0.138828 0.145995 0.080328
0.120695 0.121586 0.0630133
0.14455 0.136213 0.0469364
0.13299 0.155364 0.0612372
0.134096 0.127448 0.0575554
0.149303 0.141314 0.0737592
0.155154 0.141413 0.0490076
0.133786 0.15347 0.0439418
0.146667 0.132923 0.0621751
0.132198 0.134619 0.0424487
0.120249 0.144813 0.0429795
0.121693 0.130101 0.0741476
0.16156 0.139344 0.0630489
0.172444 0.150614 0.0658293
0.179036 0.154569 0.0534608
0.161484 0.150778 0.0750397
0.166344 0.149172 0.0492765
0.15887 0.199207 0.0653838
0.155823 0.185646 0.0766444
0.133077 0.169092 0.0430248
0.147751 0.164115 0.0425142
0.132637 0.193061 0.0477859
0.148133 0.165811 0.0607244
0.157521 0.179654 0.0426842
0.138893 0.196506 0.0781093
0.126493 0.179548 0.0653259
0.146604 0.190414 0.0424829
0.12455 0.179887 0.0427711
0.144139 0.180832 0.0633688
0.162473 0.163411 0.0425351
0.186531 0.180543 0.0431884
0.194523 0.175561 0.0652691
0.196285 0.168172 0.0492994
0.162237 0.196302 0.0433377
0.168855 0.163942 0.074234
0.174348 0.20088 0.047523
0.198165 0.189619 0.0662315
0.187822 0.196214 0.0421606
0.168109 0.175489 0.0765031
0.171179 0.176379 0.0472744
0.183678 0.164441 0.0445646
0.187076 0.164291 0.0619298
0.175056 0.200543 0.0639051
0.184121 0.186535 0.0691309
0.170545 0.18914 0.0722997
0.125792 0.141565 0.0793896
0.132443 0.156294 0.0859668
0.145636 0.161923 0.082259
0.13015 0.173548 0.0877137
0.135343 0.185684 0.0839954
0.155271 0.171221 0.0811008
0.206995 0.17316 0.0544198
0.232359 0.198836 0.0668227
0.233905 0.18389 0.0593441
0.225063 0.181584 0.0449886
0.210881 0.183869 0.0438489
0.219751 0.192096 0.06591
0.235545 0.186035 0.044815
0.218706 0.178472 0.0587879
0.210264 0.198908 0.0438074
0.268364 0.19141 0.046692
0.267794 0.19664 0.0720774
0.25571 0.191243 0.0611843
0.24714 0.189951 0.0483779
0.26832 0.186287 0.0603616
0.283152 0.188276 0.0440537
0.307371 0.193098 0.0711968
0.31078 0.190076 0.0440682
0.297209 0.18701 0.0454457
0.304452 0.18294 0.0582981
0.292293 0.18548 0.0657628
0.279865 0.183275 0.0551625
0.283723 0.192066 0.0747864
0.318965 0.184541 0.0635675
0.346359 0.193403 0.07777
0.323266 0.186132 0.0474037
0.33364 0.180789 0.0567127
0.349405 0.183353 0.0492185
0.346007 0.182857 0.0662161
0.336735 0.189589 0.0440295
0.331775 0.187517 0.0712477
0.0781538 0.20567 0.0575221
0.0722908 0.201461 0.0683501
0.0976866 0.209452 0.0646667
0.0863834 0.202464 0.0469703
0.109378 0.207711 0.0734966
0.118614 0.217355 0.066478
0.0868491 0.200338 0.071378
0.0991955 0.209188 0.0495233
0.10954 0.217643 0.055186
0.14202 0.226691 0.0578388
0.144393 0.23424 0.0441902
0.153064 0.205558 0.0487689
0.147791 0.208327 0.0633996
0.132963 0.218945 0.0668874
0.119217 0.219352 0.0459205
0.14196 0.213198 0.0463732
0.126996 0.228942 0.0453933
0.127117 0.206898 0.0423164
0.134523 0.208708 0.0740411
0.18511 0.206735 0.054781
0.197789 0.207211 0.0474484
0.198048 0.203101 0.0638302
0.144457 0.260401 0.0456829
0.154881 0.247128 0.0453254
0.155443 0.258819 0.055442
0.136673 0.248917 0.0442763
0.143367 0.248597 0.0566124
0.130856 0.237772 0.0528453
0.155284 0.268657 0.0451943
0.189159 0.266669 0.0442135
0.166956 0.258972 0.0453238
0.20052 0.270631 0.0533442
0.176929 0.268942 0.0520964
0.166037 0.274237 0.0442875
0.123565 0.20129 0.0822069
0.177776 0.278494 0.0435505
0.188902 0.27925 0.0479012
0.236463 0.239428 0.0618429
0.226854 0.221202 0.0446119
0.207688 0.212569 0.0577799
0.230781 0.206968 0.0435613
0.216717 0.21704 0.0499259
0.232151 0.233008 0.047236
0.220197 0.207176 0.0649364
0.230975 0.224684 0.061872
0.277737 0.203357 0.0810611
0.259432 0.237426 0.0436095
0.26475 0.210174 0.0765507
0.255282 0.214188 0.046281
0.268131 0.20634 0.0435146
0.278635 0.227076 0.0657139
0.268251 0.219428 0.0565474
0.246551 0.203275 0.0416112
0.255658 0.219446 0.0767437
0.247113 0.232204 0.0719323
0.248125 0.226708 0.0433547
0.273554 0.230147 0.0422592
0.24606 0.203357 0.0666321
0.242562 0.217102 0.0691229
0.258315 0.232672 0.0779526
0.211817 0.265 0.0454205
0.230542 0.256611 0.0477776
0.234622 0.2651 0.0638308
0.2417 0.268844 0.0425156
0.221944 0.264802 0.0573565
0.225975 0.273075 0.0438972
0.251078 0.256817 0.0750685
0.274488 0.26718 0.0644981
0.253646 0.251604 0.0462764
0.255832 0.273407 0.077185
0.254643 0.276912 0.0437743
0.266183 0.241822 0.0797877
0.241975 0.251574 0.0663984
0.267705 0.268062 0.0434738
0.267715 0.251698 0.0419328
0.247125 0.274577 0.0678642
0.241268 0.243782 0.0431819
0.26554 0.251007 0.0645007
0.272589 0.263193 0.0893889
0.261122 0.261747 0.0840029
0.294774 0.232019 0.0611723
0.309236 0.226593 0.0751234
0.311507 0.221653 0.0436694
0.293772 0.210573 0.0658713
0.311745 0.208335 0.0634638
0.306453 0.206711 0.04301
0.308428 0.239124 0.0435571
0.295592 0.222353 0.0462577
0.295919 0.200323 0.0798245
0.289789 0.202286 0.0431717
0.280617 0.216452 0.0432297
0.289725 0.238377 0.043522
0.323689 0.208401 0.043796
0.358813 0.225315 0.0439191
0.328699 0.199383 0.079504
0.352187 0.210356 0.0449697
0.337589 0.203384 0.0421956
0.333195 0.232396 0.0771963
0.356593 0.234988 0.0656355
0.322483 0.227829 0.0642311
0.358297 0.218719 0.0611457
0.344936 0.209482 0.0621037
0.329433 0.211087 0.0653884
0.343197 0.226298 0.0430957
0.340961 0.230598 0.065306
0.327591 0.224018 0.0430264
0.283422 0.258696 0.0758659
0.295481 0.277483 0.0691095
0.306972 0.269752 0.071012
0.298601 0.258094 0.0622467
0.310316 0.253298 0.0427382
0.297304 0.271317 0.0418321
0.301705 0.24384 0.0662317
0.283274 0.268422 0.0442692
0.291601 0.253713 0.0416856
0.311919 0.271067 0.047312
0.279189 0.247818 0.0551033
0.32234 0.26998 0.0773031
0.324816 0.276446 0.0622214
0.338403 0.242665 0.044012
0.342264 0.25609 0.0434189
0.324129 0.257028 0.061512
0.344285 0.254621 0.0754338
0.350024 0.248725 0.0566336
0.341144 0.26976 0.0614711
0.323252 0.241175 0.0432916
0.339642 0.269858 0.0437748
0.324176 0.24481 0.0675431
0.360352 0.242286 0.0431
0.325025 0.263092 0.041701
0.320054 0.230789 0.101578
0.293094 0.227131 0.086868
0.277713 0.224522 0.081943
0.306045 0.228255 0.0975199
0.289379 0.211976 0.0843814
0.31265 0.211419 0.0844576
0.316578 0.219212 0.0949524
0.341243 0.204499 0.0864796
0.334503 0.237047 0.10214
0.339901 0.224925 0.095791
0.350508 0.216145 0.0902214
0.327774 0.212103 0.0898617
0.358518 0.204566 0.0829485
0.354865 0.231392 0.0905047
0.305187 0.248669 0.0817481
0.314724 0.269291 0.103979
0.299721 0.238832 0.102845
0.301945 0.261347 0.111439
0.293612 0.248347 0.107271
0.311986 0.251203 0.108465
0.298173 0.273909 0.10825
0.286104 0.274926 0.100424
0.319768 0.247073 0.0832291
0.301933 0.264744 0.0852984
0.285833 0.246907 0.0965875
0.281096 0.241415 0.0839002
0.286463 0.260471 0.104291
0.325512 0.247001 0.105367
0.32504 0.261886 0.0995899
0.356828 0.247511 0.0866843
0.339869 0.269062 0.0864948
0.336702 0.255349 0.0960003
0.346384 0.243091 0.095891
0.354341 0.269422 0.0815491
0.202184 0.278369 0.0441774
0.214736 0.276424 0.0509526
0.255581 0.285797 0.0572719
0.267544 0.284796 0.0456964
0.24289 0.278845 0.0550966
0.268033 0.291229 0.0584296
0.274867 0.289625 0.0692116
0.268184 0.279164 0.0807883
0.279184 0.279536 0.0890228
0.303389 0.292922 0.050007
0.288105 0.294793 0.0725896
0.317211 0.298286 0.0491786
0.290574 0.284303 0.0478134
0.280301 0.290283 0.0519427
0.31366 0.300996 0.0624835
0.299187 0.297883 0.0635707
0.316068 0.285487 0.0428076
0.354623 0.288306 0.0500097
0.325336 0.297489 0.0744976
0.330015 0.300817 0.0600744
0.34328 0.296032 0.0524139
0.353366 0.292361 0.0656113
0.330363 0.293265 0.0449648
0.343531 0.283782 0.0421351
0.339813 0.294703 0.0735506
0.302824 0.297841 0.0790038
0.306435 0.293438 0.0921746
0.298745 0.285792 0.100657
0.29059 0.291209 0.0876457
0.315347 0.281338 0.0965334
0.319245 0.291942 0.0861519
0.348742 0.283591 0.0802066
0.333654 0.284457 0.0845486
0.49033 0.0451915 0.0713193
0.492327 0.0697347 0.042825
0.482934 0.067894 0.0545652
0.48833 0.053264 0.0590801
0.497385 0.0553184 0.044399
0.508621 0.0685448 0.0452866
0.511556 0.0464362 0.0439183
0.513293 0.0414106 0.0667324
0.485902 0.0672317 0.0685725
0.508614 0.057687 0.0662112
0.519069 0.0688586 0.0694762
0.494029 0.0420357 0.0498831
0.460813 0.111653 0.0601771
0.462457 0.117506 0.0440006
0.45081 0.120307 0.0540423
0.468919 0.105011 0.0478122
0.472806 0.106801 0.0662904
0.47309 0.0928804 0.0544
0.494469 0.0980322 0.0791174
0.491763 0.0817278 0.0785579
0.510018 0.115117 0.0450771
0.4813 0.0992601 0.0430387
0.504822 0.0816307 0.0588624
0.515929 0.0861083 0.0685376
0.495551 0.106372 0.0443787
0.499888 0.119392 0.068604
0.487942 0.107772 0.0696255
0.484457 0.0915487 0.0725107
0.510177 0.106146 0.0618946
0.478612 0.0809869 0.0619979
0.48247 0.0826034 0.0463463
0.498193 0.0875094 0.0430023
0.510083 0.0976898 0.0428334
0.495768 0.0512773 0.0840911
0.502591 0.0618399 0.0918195
0.50703 0.0752974 0.0918325
0.493581 0.0678395 0.0818582
0.512766 0.0497638 0.0904899
0.518664 0.0626186 0.0934075
0.518253 0.0999442 0.091559
0.509702 0.0882133 0.0904141
0.516079 0.112943 0.0844353
0.505072 0.102667 0.0850108
0.430266 0.153579 0.0699875
0.432958 0.141214 0.0464793
0.425635 0.145075 0.0593832
0.400028 0.159799 0.0566124
0.421615 0.150657 0.0453023
0.436892 0.136458 0.0615448
0.409806 0.154495 0.0486881
0.437446 0.155904 0.0422981
0.38708 0.180213 0.0689442
0.361045 0.197316 0.0457471
0.363978 0.192973 0.073619
0.360817 0.180741 0.063416
0.399548 0.192349 0.074297
0.363039 0.179121 0.0473305
0.374121 0.190456 0.0416133
0.384623 0.191165 0.0768095
0.392877 0.197969 0.0469069
0.374962 0.175905 0.0608801
0.389366 0.178481 0.0419109
0.386917 0.167243 0.052955
0.376031 0.173827 0.0455772
0.398354 0.164614 0.0429419
0.406173 0.164896 0.0686185
0.431818 0.170483 0.0755903
0.420227 0.19728 0.0481612
0.413467 0.165651 0.0441006
0.40134 0.177226 0.0745188
0.418749 0.160496 0.0713728
0.423806 0.183205 0.0427827
0.407426 0.187579 0.0469461
0.417109 0.175245 0.0766358
0.431776 0.192569 0.0552908
0.435618 0.170666 0.0434646
0.412981 0.188342 0.0705146
0.42766 0.184912 0.0677993
0.448974 0.130923 0.0656444
0.451908 0.148874 0.075706
0.465944 0.150425 0.0791238
0.477388 0.143519 0.0531471
0.469917 0.121277 0.0708322
0.442112 0.159187 0.0770663
0.461915 0.131565 0.0720306
0.476096 0.133696 0.0747769
0.469068 0.154771 0.0419969
0.453482 0.154761 0.0411924
0.457248 0.13254 0.0429426
0.443039 0.131351 0.0484789
0.455028 0.151509 0.0580868
0.472387 0.131252 0.0438774
0.503957 0.157845 0.0635621
0.510953 0.157022 0.0473049
0.515404 0.122993 0.0732735
0.490611 0.149815 0.0428196
0.47991 0.148473 0.0742364
0.498118 0.136816 0.0675617
0.488205 0.129733 0.0707949
0.489392 0.134947 0.0432599
0.485047 0.120478 0.0451345
0.499792 0.124239 0.0457089
0.507783 0.144644 0.0693705
0.51099 0.14118 0.0429866
0.474515 0.1707 0.0460094
0.461815 0.17293 0.0668606
0.443667 0.18426 0.0598769
0.447272 0.17425 0.0707794
0.472944 0.163371 0.0752268
0.440455 0.185381 0.0456665
0.460491 0.169939 0.0431791
0.450694 0.177241 0.047036
0.474941 0.172722 0.0618459
0.457002 0.163918 0.0790133
0.487946 0.16663 0.0429649
0.486932 0.159919 0.0678761
0.48742 0.171353 0.0560445
0.499541 0.164292 0.0496922
0.55689 0.0554873 0.0517593
0.559228 0.069996 0.0479574
0.537512 0.0512525 0.0428521
0.554836 0.0648263 0.0764042
0.532751 0.070061 0.0430163
0.555385 0.0505191 0.0671882
0.522104 0.0578933 0.0452216
0.549754 0.0429071 0.0545133
0.535516 0.071696 0.0646116
0.547689 0.0638431 0.0423049
0.528953 0.0565991 0.0626345
0.544874 0.0400916 0.0728828
0.560489 0.0791672 0.0722145
0.563797 0.0641597 0.0628761
0.566474 0.0784324 0.0585808
0.544409 0.109018 0.0762795
0.552213 0.104231 0.0656094
0.533175 0.0871597 0.0647747
0.551911 0.0914286 0.0420048
0.524392 0.100887 0.0655397
0.543034 0.104103 0.0443826
0.526348 0.0981188 0.0432351
0.536996 0.0851441 0.0441828
0.554837 0.102085 0.0535813
0.519538 0.081259 0.0457348
0.533699 0.114186 0.0454308
0.561441 0.0861703 0.049197
0.560991 0.0927228 0.0644854
0.533546 0.0613099 0.0882459
0.524022 0.0767359 0.0931877
0.538622 0.075228 0.088009
0.53311 0.0469891 0.0828956
0.545693 0.0539883 0.0809384
0.549581 0.0809563 0.0805208
0.532755 0.10557 0.0880372
0.53188 0.0900935 0.0907969
0.544519 0.0951485 0.0819777
0.531591 0.119465 0.0818092
0.523408 0.1231 0.0453825
0.538153 0.134721 0.0626244
0.523857 0.142869 0.0709617
0.539365 0.122727 0.0535165
0.522918 0.15129 0.0476629
0.529401 0.131508 0.0755667
0.542363 0.121972 0.0678866
0.525709 0.137059 0.0435651
0.53212 0.145225 0.055877
0.519112 0.15417 0.063844
0.391976 0.20467 0.0710865
0.37997 0.239199 0.0697817
0.392891 0.21845 0.0630436
0.388049 0.233759 0.0599563
0.39883 0.21427 0.0474658
0.389895 0.225339 0.0461537
0.382403 0.224844 0.0715838
0.381062 0.236139 0.0466788
0.37011 0.202196 0.0594559
0.374268 0.214781 0.0790729
0.373271 0.220448 0.0439127
0.378691 0.201323 0.0791941
0.382723 0.210133 0.0427118
0.408282 0.203387 0.0431287
0.408798 0.203204 0.0571046
0.363283 0.258205 0.0777082
0.361768 0.27941 0.0719222
0.370059 0.271967 0.0607912
0.375027 0.259912 0.0547914
0.362664 0.269621 0.0474405
0.374691 0.252955 0.0675299
0.375216 0.247694 0.0464463
0.36931 0.24275 0.0780043
0.365815 0.258015 0.0419942
0.363837 0.221454 0.0834762
0.36449 0.283218 0.0573733
0.119869 -0.274229 0.0712114
0.119649 -0.28624 0.0563324
0.110581 -0.282193 0.0627333
0.104015 -0.27513 0.0686937
0.152074 -0.276753 0.0493361
0.126272 -0.276842 0.0468071
0.151991 -0.294417 0.0555762
0.132932 -0.287679 0.0606385
0.13911 -0.285803 0.0447393
0.142585 -0.293215 0.0512621
0.170355 -0.28422 0.0626097
0.165083 -0.289699 0.0463798
0.173531 -0.299057 0.0589498
0.164479 -0.298091 0.0518856
0.186787 -0.290188 0.0488106
0.184965 -0.283079 0.068223
0.192991 -0.293311 0.0667297
0.186901 -0.298604 0.0569708
0.205827 -0.278351 0.0692891
0.229326 -0.290505 0.0657035
0.220336 -0.28883 0.0524471
0.239296 -0.283587 0.0739273
0.216199 -0.28712 0.0705753
0.226761 -0.275671 0.0754216
0.206911 -0.286739 0.0482287
0.207102 -0.294257 0.0611722
0.241596 -0.285468 0.0569129
0.274282 -0.275867 0.0630071
0.25255 -0.28223 0.0680792
0.294696 -0.275854 0.0586844
0.308782 -0.277089 0.0610326
0.32205 -0.276877 0.0630139
0.334426 -0.278477 0.0697126
0.347922 -0.27756 0.0755614
0.113412 -0.242188 0.0661613
0.111279 -0.249869 0.0428085
0.0973118 -0.248746 0.0489344
0.0867264 -0.253831 0.0658642
0.11189 -0.271295 0.0519064
0.0997181 -0.261889 0.0572155
0.0561016 -0.203159 0.0479203
0.0734913 -0.223694 0.0758789
0.0697415 -0.223627 0.0500972
0.0743805 -0.233762 0.0630571
0.0644491 -0.220712 0.06549
0.0813613 -0.232469 0.04913
0.0693448 -0.207779 0.0753685
0.0533143 -0.198559 0.0603365
0.0708139 -0.207215 0.0437301
0.0582099 -0.213347 0.0554214
0.0948578 -0.216609 0.0687481
0.0843961 -0.217443 0.0453402
0.124392 -0.215206 0.0679802
0.113831 -0.210287 0.0449528
0.10124 -0.237716 0.0431538
0.0862029 -0.206681 0.0653728
0.0996094 -0.217079 0.0452922
0.122152 -0.204961 0.0551592
0.0995912 -0.230096 0.0658036
0.0846207 -0.243485 0.0552276
0.112341 -0.221256 0.0746024
0.113061 -0.22623 0.0464564
0.114879 -0.201301 0.0676488
0.106469 -0.259124 0.0822946
0.0837056 -0.244841 0.0784696
0.0986797 -0.249366 0.0906001
0.112107 -0.247564 0.0806929
0.0897656 -0.257683 0.0818091
0.0947431 -0.266522 0.0730202
0.0952337 -0.226005 0.0967245
0.0825243 -0.200995 0.0895399
0.107387 -0.203131 0.0902002
0.105873 -0.236228 0.0890197
0.106999 -0.219394 0.088843
0.0847245 -0.214063 0.0949023
0.0975029 -0.209059 0.0982519
0.0803453 -0.224666 0.0876794
0.0877265 -0.237794 0.0907237
0.122816 -0.253504 0.0454937
0.128776 -0.241364 0.0690942
0.154997 -0.257421 0.0635651
0.139057 -0.272343 0.0632135
0.134518 -0.257712 0.0452039
0.135298 -0.252944 0.0695101
0.148514 -0.260099 0.0441073
0.128007 -0.263698 0.0693267
0.143011 -0.243403 0.0438267
0.147965 -0.2494 0.0674993
0.190648 -0.267752 0.0457976
0.158239 -0.245587 0.0428637
0.181005 -0.254962 0.0423698
0.191491 -0.25708 0.0715714
0.168062 -0.256597 0.0628081
0.19647 -0.244571 0.077464
0.174758 -0.269898 0.0510537
0.165442 -0.258039 0.0441659
0.179438 -0.248546 0.0689529
0.188111 -0.268608 0.0656364
0.145129 -0.223023 0.0637359
0.12337 -0.236793 0.0439753
0.134211 -0.214587 0.0552839
0.133533 -0.228765 0.068239
0.148892 -0.221802 0.047882
0.154677 -0.234939 0.0645752
0.135059 -0.227283 0.0462837
0.180258 -0.207063 0.0690157
0.197923 -0.228843 0.0784337
0.16988 -0.235355 0.0658485
0.197333 -0.221101 0.0559163
0.174539 -0.206375 0.0542727
0.171193 -0.218068 0.0668406
0.175946 -0.218052 0.0428289
0.161786 -0.225429 0.0422601
0.197467 -0.231712 0.0422665
0.175695 -0.234061 0.0470115
0.185444 -0.219899 0.0754509
0.187553 -0.241437 0.0422002
0.189221 -0.208557 0.0440628
0.162133 -0.214852 0.0537445
0.183897 -0.235292 0.0740864
0.048881 -0.179389 0.0445192
0.0454317 -0.179468 0.0617104
0.0650432 -0.182732 0.0766898
0.0660753 -0.177894 0.0440732
0.0558253 -0.163742 0.0447052
0.0536085 -0.19147 0.0456976
0.053547 -0.175493 0.0731139
0.0694063 -0.170544 0.0754996
0.0846575 -0.163904 0.0542898
0.0807642 -0.174905 0.0478069
0.0565524 -0.162398 0.0762395
0.0756922 -0.191229 0.0790085
0.0754772 -0.188889 0.0464226
0.0610091 -0.195671 0.0708762
0.0862404 -0.198482 0.0428342
0.110314 -0.195477 0.0547254
0.102324 -0.199418 0.0430903
0.0904773 -0.173941 0.0605947
0.0969814 -0.188848 0.0517683
0.0886728 -0.189838 0.0666246
0.0476497 -0.150805 0.0451493
0.073862 -0.134941 0.0584761
0.0507252 -0.13652 0.0649974
0.067636 -0.128829 0.0445735
0.0465513 -0.15216 0.0733209
0.0696933 -0.156322 0.0415614
0.0780458 -0.154019 0.0514455
0.0535131 -0.131215 0.0429223
0.0614863 -0.147262 0.0763046
0.0726778 -0.15794 0.0683533
0.0686063 -0.142965 0.0454795
0.0859592 -0.125438 0.0678252
0.0925651 -0.192817 0.0950898
0.110108 -0.177275 0.0870495
0.10791 -0.195463 0.0771208
0.0893267 -0.163777 0.0823295
0.0907162 -0.177582 0.0888899
0.104733 -0.187972 0.0933917
0.111207 -0.165566 0.0824135
0.0996811 -0.166474 0.0914058
0.104865 -0.172876 0.0717746
0.0431881 -0.130783 0.0844029
0.0626938 -0.12387 0.0947522
0.0489147 -0.119643 0.0973414
0.0732093 -0.136365 0.0803657
0.0580903 -0.134903 0.0846843
0.0765235 -0.124536 0.0922058
0.105873 -0.142615 0.0764545
0.10651 -0.157223 0.0722921
0.0932767 -0.138178 0.0866396
0.10276 -0.146242 0.0860395
0.0984836 -0.131488 0.0753989
0.0929448 -0.147633 0.0694269
0.199524 -0.18982 0.0618901
0.193331 -0.200568 0.0723341
0.186794 -0.197432 0.056622
0.1997 -0.196448 0.0464827
0.231626 -0.242824 0.0544468
0.239906 -0.268205 0.0771742
0.217169 -0.267253 0.0438006
0.20261 -0.275422 0.0437222
0.225174 -0.251941 0.0426613
0.214625 -0.244251 0.0792266
0.235355 -0.265323 0.0423188
0.230451 -0.278519 0.0479235
0.23208 -0.248345 0.079259
0.215447 -0.261155 0.0615954
0.202469 -0.258361 0.0422164
0.200414 -0.244457 0.0535063
0.220737 -0.258026 0.0769336
0.205904 -0.256803 0.0753171
0.216325 -0.242125 0.0440209
0.249406 -0.258956 0.043907
0.261486 -0.275953 0.0574439
0.25492 -0.269051 0.0768122
0.26984 -0.269833 0.0742838
0.272606 -0.253532 0.0443622
0.251978 -0.242049 0.0654718
0.246291 -0.242696 0.0422223
0.262604 -0.258372 0.0476253
0.273311 -0.249152 0.0702409
0.240933 -0.25603 0.067586
0.247249 -0.273523 0.0494548
0.26243 -0.257598 0.074213
0.230887 -0.222082 0.0623563
0.240768 -0.230732 0.0443499
0.215161 -0.231472 0.062092
0.239042 -0.209309 0.0424097
0.220671 -0.210462 0.058649
0.219102 -0.208827 0.0801299
0.201042 -0.212654 0.0792659
0.228953 -0.220544 0.0448646
0.214168 -0.226295 0.0429776
0.204898 -0.210871 0.0424812
0.211967 -0.222332 0.0790907
0.26876 -0.206346 0.0426827
0.2586 -0.229544 0.077333
0.268581 -0.235978 0.0714032
0.244501 -0.236519 0.0799722
0.252122 -0.222156 0.0562447
0.247896 -0.204166 0.0767386
0.267734 -0.222302 0.0498811
0.262158 -0.212047 0.07498
0.254954 -0.214736 0.042156
0.262089 -0.240566 0.043372
0.276209 -0.236369 0.0453916
0.276252 -0.209706 0.0698575
0.278174 -0.22454 0.0669007
0.227284 -0.235598 0.0819843
0.235253 -0.224889 0.0841388
0.23477 -0.211373 0.0812709
0.249605 -0.219069 0.0824583
0.282648 -0.269649 0.0541029
0.285791 -0.26717 0.0715724
0.299494 -0.269557 0.0725202
0.312933 -0.271346 0.0766103
0.309537 -0.248928 0.0422336
0.298224 -0.246793 0.0683571
0.305327 -0.267793 0.0508489
0.312406 -0.249197 0.0693164
0.298495 -0.258066 0.0462025
0.286527 -0.250758 0.0423439
0.286153 -0.246479 0.0661909
0.346112 -0.247357 0.0427745
0.334048 -0.259214 0.0457078
0.342624 -0.2505 0.0652836
0.318789 -0.256969 0.0797365
0.345957 -0.266735 0.0501299
0.329358 -0.243271 0.0428641
0.353532 -0.246428 0.0725434
0.321088 -0.25457 0.0488468
0.347158 -0.276086 0.0604405
0.332542 -0.27188 0.0541978
0.29043 -0.204901 0.0681356
0.305144 -0.219628 0.0734668
0.304743 -0.234671 0.0732922
0.307169 -0.23528 0.0453149
0.293243 -0.225287 0.0670062
0.313044 -0.225458 0.0499996
0.29261 -0.219839 0.0467539
0.317373 -0.210038 0.0425002
0.312478 -0.204598 0.0738064
0.284811 -0.209197 0.0423974
0.302243 -0.208794 0.0425101
0.291323 -0.234117 0.0425856
0.339753 -0.209577 0.0428166
0.352643 -0.223522 0.0643999
0.34293 -0.209223 0.0649957
0.350195 -0.219387 0.0417804
0.325696 -0.218761 0.0508784
0.33161 -0.239274 0.0693551
0.331771 -0.222996 0.0777895
0.349547 -0.232767 0.0446377
0.319953 -0.214709 0.078087
0.317816 -0.229882 0.0769987
0.333098 -0.231599 0.0512472
0.328653 -0.202637 0.0717445
0.330252 -0.254755 0.0855005
0.353526 -0.255764 0.098867
0.342052 -0.253412 0.0914651
0.338206 -0.270017 0.0886768
0.351477 -0.269092 0.0940492
0.325367 -0.269963 0.0833639
0.341709 -0.235601 0.0826468
0.34829 -0.212535 0.0855516
0.351288 -0.226316 0.0891951
0.239377 -0.187324 0.0561056
0.225393 -0.183252 0.0624223
0.213335 -0.186478 0.0685484
0.21096 -0.185808 0.0516859
0.225174 -0.185177 0.0482414
0.23488 -0.192877 0.0431026
0.216105 -0.198154 0.0418508
0.208219 -0.19824 0.0767797
0.225349 -0.194855 0.0744343
0.249138 -0.197282 0.0466969
0.257426 -0.19691 0.0681946
0.272078 -0.194555 0.0645796
0.261688 -0.194311 0.0528966
0.241303 -0.194514 0.0688454
0.305593 -0.191828 0.0443206
0.31496 -0.186367 0.0575584
0.30421 -0.194647 0.0691784
0.287372 -0.191172 0.0641198
0.291555 -0.190265 0.0482743
0.278093 -0.194245 0.048551
0.300552 -0.185162 0.0578734
0.35041 -0.184791 0.0705641
0.346875 -0.194656 0.046668
0.331749 -0.19711 0.0424562
0.343491 -0.18574 0.0573961
0.353861 -0.175228 0.0594219
0.323221 -0.192839 0.0652745
0.347458 -0.197435 0.0767154
0.321425 -0.192058 0.0465596
0.357552 -0.20069 0.0872197
0.0570307 -0.0963178 0.0439461
0.0613828 -0.117338 0.0685569
0.044268 -0.0891585 0.0761575
0.0787216 -0.105204 0.0582805
0.0739257 -0.0956653 0.0465736
0.0517431 -0.109736 0.0624062
0.0613725 -0.0910479 0.0707376
0.0531332 -0.116081 0.0465308
0.0665997 -0.10801 0.0437233
0.0462413 -0.0878996 0.045428
0.0805421 -0.0893012 0.0595174
0.0758472 -0.119741 0.0537078
0.0527848 -0.0422381 0.0791668
0.0712963 -0.0656627 0.0477681
0.0471328 -0.0638482 0.0598035
0.0636012 -0.0536441 0.0445789
0.0731692 -0.0504195 0.0652042
0.0646964 -0.0689774 0.0761293
0.061469 -0.0527057 0.0758431
0.0741112 -0.0806177 0.0700902
0.0765327 -0.0651122 0.0651507
0.0592257 -0.0775679 0.0435863
0.039115 -0.0417149 0.0450085
0.0539128 -0.0768192 0.0787203
0.0463762 -0.0691881 0.0436436
0.0735182 -0.0446151 0.0507328
0.0482801 -0.0547335 0.0454517
0.0753358 -0.0808302 0.0462221
0.0810791 -0.0745824 0.0570899
0.0408385 -0.10824 0.0949072
0.0692978 -0.100463 0.0805009
0.0680446 -0.109572 0.0929186
0.0541566 -0.104553 0.0887212
0.0829821 -0.109734 0.0730107
0.0901851 -0.121763 0.0842002
0.0806136 -0.109954 0.0868327
0.0507504 -0.0611059 0.0817005
0.0382189 -0.0739627 0.0809657
0.064599 -0.0202319 0.0427146
0.0630939 -0.0309695 0.0748409
0.0747424 -0.0361442 0.0649454
0.0708019 -0.0221845 0.0665159
0.0609463 -0.00497815 0.0477005
0.061974 -0.0374824 0.0426593
0.0506439 -0.0268097 0.0794759
0.0494684 -0.0340605 0.0569442
0.0475331 -0.0144302 0.0424734
0.0488282 -0.012052 0.0727869
0.0622086 -0.00866778 0.0642262
0.0711567 -0.0143668 0.0539859
0.0746505 -0.0294759 0.0506815
0.044916 0.00417225 0.068298
0.0433081 0.0146198 0.0561131
0.0553046 0.00447394 0.0573721
0.0477054 0.00380248 0.0442778
0.388359 -0.24649 0.0554954
0.360313 -0.261764 0.053056
0.377778 -0.24456 0.0430713
0.370551 -0.260101 0.0665774
0.374947 -0.254527 0.0539537
0.362657 -0.248011 0.0450995
0.360606 -0.27103 0.0681242
0.402419 -0.239884 0.0530233
0.400813 -0.218862 0.0725436
0.36782 -0.230876 0.0442048
0.38955 -0.208113 0.0421214
0.373912 -0.202973 0.0453191
0.363847 -0.212035 0.0446847
0.365678 -0.202588 0.0608203
0.367283 -0.21725 0.0691057
0.398081 -0.236934 0.0683534
0.387626 -0.210083 0.0654208
0.378769 -0.21949 0.0473037
0.39046 -0.237226 0.043314
0.375885 -0.230711 0.0661013
0.362182 -0.236148 0.0685152
0.421883 -0.209695 0.0698328
0.413672 -0.231185 0.0488987
0.434892 -0.206976 0.0660223
0.431668 -0.215104 0.0489283
0.406068 -0.209441 0.0455216
0.424568 -0.224892 0.0593172
0.411849 -0.23267 0.0649427
0.41932 -0.218676 0.0439679
0.414966 -0.218792 0.0711273
0.401216 -0.200706 0.0698727
0.431109 -0.199502 0.0425543
0.399558 -0.2258 0.042948
0.366066 -0.265918 0.0933352
0.36647 -0.251995 0.101457
0.360638 -0.272343 0.0821786
0.388455 -0.240782 0.0770906
0.374104 -0.241143 0.100214
0.38392 -0.243676 0.0900822
0.376664 -0.257024 0.090875
0.378104 -0.253422 0.077084
0.385631 -0.226949 0.0871165
0.359017 -0.236731 0.0954795
0.360616 -0.214077 0.0944802
0.387508 -0.211554 0.0831793
0.371546 -0.227042 0.0986226
0.373731 -0.203152 0.0896762
0.377418 -0.216245 0.0946555
0.442578 -0.208658 0.053172
0.393962 -0.178611 0.0682491
0.386013 -0.192807 0.0496006
0.365769 -0.178179 0.0717062
0.357718 -0.186779 0.0462334
0.363254 -0.17373 0.0476959
0.380666 -0.186089 0.0709498
0.382521 -0.196504 0.0788311
0.369007 -0.168602 0.0614881
0.375923 -0.181816 0.0422863
0.376323 -0.166904 0.0486401
0.389557 -0.171219 0.0441757
0.385027 -0.165204 0.0622253
0.400381 -0.194272 0.0423305
0.432663 -0.191605 0.0700088
0.419263 -0.161578 0.0473804
0.407841 -0.17307 0.0724112
0.437302 -0.183891 0.0453439
0.41799 -0.186015 0.0729484
0.419777 -0.178686 0.0465528
0.432424 -0.169592 0.0433777
0.415757 -0.195196 0.0470665
0.407144 -0.181586 0.0465009
0.427666 -0.177353 0.0780581
0.42149 -0.163136 0.0747184
0.408857 -0.193451 0.0701105
0.396297 -0.161634 0.049453
0.432266 -0.153874 0.0537731
0.413621 -0.157019 0.0637025
0.399099 -0.162192 0.0660024
0.407884 -0.158602 0.050552
0.433904 -0.153076 0.0687864
0.365405 -0.189327 0.0801194
0.434517 -0.162603 0.0819874
0.448639 -0.185474 0.0708354
0.475604 -0.172724 0.0465771
0.472923 -0.179041 0.0605895
0.449878 -0.199095 0.0635431
0.457216 -0.162491 0.06226
0.469032 -0.159709 0.0436989
0.447691 -0.197205 0.0450043
0.459057 -0.193147 0.0514928
0.44248 -0.176427 0.0794131
0.449753 -0.174256 0.0457683
0.462636 -0.16827 0.0772792
0.461955 -0.186448 0.0643005
0.463453 -0.181138 0.0456509
0.484037 -0.170687 0.0598289
0.484811 -0.160326 0.0451767
0.484578 -0.162939 0.0724545
0.444609 -0.150985 0.0771217
0.443906 -0.15819 0.0426716
0.454285 -0.139238 0.063932
0.452808 -0.136162 0.0482428
0.458018 -0.150944 0.0429478
0.467285 -0.131874 0.0440034
0.465644 -0.123419 0.0703722
0.45631 -0.124869 0.0576494
0.443643 -0.144522 0.0527918
0.479655 -0.142117 0.0463495
0.492957 -0.13551 0.0434312
0.495671 -0.150712 0.047576
0.479663 -0.140055 0.0625201
0.505812 -0.142586 0.0546498
0.506786 -0.131645 0.0469487
0.49474 -0.160226 0.0591257
0.492307 -0.128746 0.0664747
0.519269 -0.124687 0.0514733
0.507042 -0.145183 0.0719008
0.496725 -0.154077 0.0740759
0.449981 -0.164718 0.0844855
0.468288 -0.142112 0.0797635
0.472099 -0.159304 0.0817924
0.457979 -0.151276 0.0825702
0.507187 -0.135724 0.0873799
0.517759 -0.137596 0.0744767
0.518267 -0.128035 0.0903211
0.482545 -0.119794 0.0863068
0.496683 -0.123418 0.0894965
0.494802 -0.141272 0.0867551
0.483119 -0.150263 0.0848219
0.478929 -0.134112 0.0847874
0.522999 -0.12989 0.0629511
0.529861 -0.129231 0.0766923
0.464174 -0.0913605 0.0666048
0.465783 -0.117732 0.0457513
0.471702 -0.0985539 0.0767291
0.476342 -0.090825 0.0434942
0.463246 -0.111134 0.0606553
0.454958 -0.0815424 0.0621355
0.470635 -0.105788 0.0463287
0.464048 -0.0865129 0.0504015
0.470694 -0.112941 0.0775823
0.512168 -0.0863187 0.0777002
0.505073 -0.0811459 0.0595118
0.488082 -0.101717 0.0435859
0.511085 -0.0882181 0.043872
0.498771 -0.103854 0.0666816
0.486898 -0.0891342 0.0579162
0.504853 -0.117339 0.0436226
0.514862 -0.0987971 0.0647776
0.503563 -0.101764 0.0444686
0.519715 -0.111541 0.043051
0.488797 -0.116041 0.0620784
0.482813 -0.117003 0.0463069
0.448433 -0.0496006 0.0458633
0.468424 -0.0577732 0.0419717
0.445182 -0.0571598 0.0609017
0.448814 -0.0707885 0.0564708
0.478885 -0.0697583 0.0628833
0.460945 -0.0770461 0.0763622
0.461113 -0.0740013 0.0452641
0.452669 -0.0466773 0.07151
0.453708 -0.0648921 0.0718963
0.443935 -0.0429458 0.058017
0.452845 -0.062642 0.0440912
0.473145 -0.0482436 0.0562561
0.495748 -0.0697209 0.0666133
0.481306 -0.0625547 0.0452363
0.510499 -0.0576216 0.0620978
0.50645 -0.0623625 0.0426403
0.493278 -0.0529887 0.0436124
0.504609 -0.0425878 0.0634008
0.501056 -0.0770272 0.0429533
0.507902 -0.0441036 0.0422132
0.486894 -0.0579715 0.0710051
0.508852 -0.0589695 0.0773997
0.485896 -0.0779884 0.0433737
0.481674 -0.0425519 0.068924
0.518787 -0.0721703 0.0737738
0.478403 -0.0862584 0.0833966
0.49366 -0.0929786 0.081097
0.512533 -0.091306 0.0942638
0.514075 -0.112009 0.0944115
0.504543 -0.0796615 0.0943853
0.482662 -0.106728 0.0844927
0.511626 -0.110386 0.0728551
0.502713 -0.11041 0.0888853
0.475614 -0.0411766 0.0915218
0.465782 -0.0469879 0.0800999
0.466295 -0.0622327 0.0816151
0.472825 -0.073198 0.0851599
0.519493 -0.0604532 0.100712
0.488845 -0.0776041 0.0887296
0.51331 -0.0480266 0.0985758
0.504238 -0.064722 0.100738
0.489803 -0.0644276 0.0947466
0.482798 -0.0528999 0.0939237
0.497748 -0.0510474 0.101995
0.448919 -0.0314324 0.0640187
0.452214 -0.0263392 0.0492866
0.453869 -0.0387935 0.0433396
0.462938 -0.0197891 0.0446393
0.45699 -0.0184926 0.0604314
0.473827 -0.0351919 0.0442536
0.476737 -0.0184908 0.0423796
0.459775 -0.0320218 0.0731359
0.468486 -0.00915072 0.0543502
0.469215 -0.0179445 0.0696983
0.499218 -0.00567338 0.0660032
0.483817 -0.0280461 0.0647283
0.499974 -0.0297368 0.0455468
0.495496 -0.02081 0.0690007
0.486558 -0.039131 0.0427178
0.508241 -0.0151847 0.0441497
0.501146 -0.0412082 0.0777171
0.509123 -0.027261 0.0621056
0.491809 -0.015475 0.0454485
0.477456 0.00150902 0.05725
0.476551 0.00142953 0.0701387
0.507254 0.016027 0.044919
0.487473 0.000821302 0.046558
0.492584 0.0279584 0.047324
0.504047 0.00152686 0.0430223
0.508579 0.024878 0.0655007
0.490224 0.0138435 0.0449976
0.51071 0.00323877 0.0646093
0.484817 0.0214612 0.0567358
0.508148 0.0314762 0.0430995
0.487965 0.0329604 0.0746499
0.482441 0.0217579 0.0684702
0.473052 -0.0282546 0.0878502
0.477597 -0.0151659 0.0881085
0.490433 -0.0380897 0.10086
0.483503 -0.0250815 0.0977425
0.506539 -0.0361659 0.0937457
0.513232 -0.0191319 0.0822809
0.481786 -0.00238225 0.0859587
0.510669 -0.00323684 0.0820933
0.493065 -0.0115302 0.0917098
0.498314 -0.02456 0.0945926
0.507455 0.0383031 0.0886192
0.480787 0.0107463 0.0792843
0.497137 0.00362362 0.0847877
0.491481 0.0188908 0.0840774
0.500588 0.0276206 0.0864048
0.514944 0.0253501 0.0821128
0.539458 -0.0814647 0.0662158
0.538251 -0.0977539 0.069939
0.527561 -0.0834277 0.0437688
0.534502 -0.115963 0.0656153
0.527266 -0.0978804 0.0448294
0.536433 -0.0929629 0.0554465
0.530607 -0.11061 0.0536212
0.528038 -0.0695999 0.0460077
0.534276 -0.0501633 0.0745112
0.522431 -0.059712 0.0428232
0.534971 -0.0652014 0.0682089
0.535838 -0.0516147 0.0607312
0.53643 -0.0751265 0.0546608
0.530814 -0.04817 0.0493977
0.537981 -0.109173 0.0889622
0.52914 -0.11937 0.0924896
0.537772 -0.117731 0.0781125
0.525293 -0.10303 0.0970211
0.539765 -0.0968907 0.0866118
0.539701 -0.0841951 0.0805857
0.529953 -0.0885276 0.0968722
0.520138 -0.0769452 0.100103
0.53042 -0.0633229 0.092475
0.526931 -0.0496841 0.0891617
0.534606 -0.0746746 0.0898688
0.534892 -0.0358507 0.0671647
0.527283 -0.0256213 0.0766614
0.533759 -0.0160257 0.0542706
0.520731 -0.00743609 0.0435895
0.534009 -0.0018618 0.0497498
0.524712 -0.0231006 0.0439699
0.533773 -0.0315778 0.0539648
0.523303 -0.0380264 0.0437071
0.533558 -0.00764321 0.0652384
0.525962 -0.0122393 0.0781143
0.525813 0.000877418 0.0759482
0.523601 0.0346329 0.0496705
0.539482 0.0276516 0.0691062
0.521262 0.014851 0.07467
0.539573 0.0100954 0.0508584
0.523991 0.0123507 0.0460933
0.535182 0.0229292 0.0424979
0.5374 0.0144297 0.0654177
0.544631 0.0229695 0.0550006
0.527872 0.0351848 0.0782298
0.539811 0.0365253 0.0457723
0.526293 -0.0378194 0.0812405
-0.0199149 0.0397355 0.0533817
-0.0145685 0.0501034 0.0463414
0.00089999 0.0540055 0.0443438
-0.00734659 0.0457731 0.0589339
-0.0118017 0.0636536 0.0474837
-0.010077 0.0695427 0.0596212
0.000653679 0.0744949 0.0670184
0.0218826 0.0687053 0.0445961
0.0286817 0.0582025 0.0530421
0.00821824 0.0742535 0.0433774
0.0306484 0.0794852 0.0442797
0.0146614 0.0775047 0.0678585
0.0265869 0.0450051 0.0606791
0.0240872 0.0675334 0.063425
0.0224147 0.0470903 0.044235
0.00198833 0.0576733 0.0635124
0.0159883 0.0541423 0.0638714
-0.00662748 0.0767973 0.0452285
-0.00597394 0.0901396 0.0478711
-0.00844408 0.100647 0.0555247
-0.00396562 0.113766 0.0610092
-0.00673119 0.0879468 0.0645574
0.00513878 0.0982433 0.0443736
0.0369194 0.0916585 0.0428566
0.0363631 0.0841579 0.0703488
0.00606491 0.113841 0.0449573
0.016598 0.114182 0.0783977
0.003137 0.0998843 0.0702192
0.0150649 0.0908088 0.0727594
0.020144 0.10484 0.0623218
0.019007 0.0912728 0.044126
0.0256748 0.106541 0.0422717
0.033249 0.109246 0.0838423
0.0367384 0.0948188 0.0816618
0.0250827 0.0947789 0.079823
0.000982938 0.125129 0.0497553
0.0336849 0.147609 0.0446879
0.0011242 0.136408 0.0588033
0.0125976 0.1399 0.0766252
0.0137135 0.126967 0.0422989
0.0406302 0.136236 0.0645679
0.00873089 0.146059 0.0502327
0.0267089 0.127004 0.0602834
0.0325628 0.119942 0.0459102
0.0188885 0.141813 0.0438056
0.00814409 0.148706 0.0645109
0.0178284 0.156295 0.0550913
0.00260397 0.124455 0.0667294
0.0213034 0.15261 0.0704345
0.0295885 0.163659 0.0520378
0.0349015 0.170208 0.0653669
0.0389156 0.17617 0.0518985
0.0384265 0.133402 0.0823319
0.0165286 0.128447 0.0818888
0.0296278 0.121882 0.084636
0.0251663 0.142361 0.0806142
-0.0615471 0.0773346 0.0607184
-0.0508301 0.0821277 0.0514639
0.0371595 -0.167895 0.0637911
0.0316341 -0.160625 0.0545992
0.0400402 -0.170352 0.0481231
0.0320845 -0.136745 0.0611902
0.0319606 -0.148421 0.0499477
0.0296485 -0.125958 0.047812
0.0367039 -0.118428 0.0642625
0.0347617 -0.152125 0.0664036
0.0383317 -0.137007 0.0437617
0.0296186 -0.126853 0.0837364
0.0349891 -0.122903 0.0953002
-0.0051965 -0.0822314 0.0617485
0.0400309 -0.0956956 0.0592527
0.019811 -0.11792 0.0544203
0.0214255 -0.0946373 0.0420466
0.0281754 -0.0855684 0.0692961
0.000642619 -0.0952935 0.0616153
0.00889361 -0.106583 0.0611528
0.0154448 -0.0936133 0.0698377
0.0337904 -0.0869419 0.0456797
0.0169123 -0.108847 0.0468297
0.00779226 -0.096008 0.0486877
0.0328572 -0.112575 0.0468396
-0.0112996 -0.0709262 0.0562806
-0.00608747 -0.0416268 0.0754483
-0.0269751 -0.0445913 0.0530924
-0.0234291 -0.0544605 0.0624262
-0.0102124 -0.0573447 0.0713973
-0.00343325 -0.046089 0.0424162
-0.000894649 -0.0725408 0.0460593
-0.00203462 -0.0699942 0.073702
-0.00968669 -0.0616801 0.0449644
-0.0186993 -0.051869 0.0451119
0.0220908 -0.0741614 0.0796537
0.0106008 -0.0799085 0.0450697
0.0133506 -0.0473831 0.0790853
0.00882913 -0.0803654 0.0743045
0.0323366 -0.0427682 0.0631595
0.0112173 -0.0625582 0.0439071
0.0318311 -0.0655229 0.0598251
0.00863159 -0.0439906 0.0503426
0.0261294 -0.0573438 0.0434198
0.000280344 -0.0532244 0.0801071
0.025401 -0.072297 0.0456601
0.0154363 -0.0499723 0.0630579
-0.0172623 -0.114883 0.0732926
-0.0112675 -0.121295 0.0807435
0.00227842 -0.123665 0.0802492
0.00271193 -0.106529 0.0881038
0.0133419 -0.112985 0.0927447
0.0101922 -0.123342 0.0891522
0.0269133 -0.108726 0.0915527
0.0172429 -0.119669 0.0750636
0.0369003 -0.103183 0.0809833
0.0237942 -0.0570559 0.0819035
0.0105002 -0.065014 0.0822844
0.0373102 -0.0579771 0.0812236
-0.0122967 -0.0243072 0.04365
-0.0284734 -0.0257799 0.0474732
-0.0313807 -0.0133415 0.0471597
-0.0140054 -0.0319273 0.0722298
-0.00347011 -0.0060108 0.0616932
-0.0110587 -0.0178572 0.0678458
-0.0289653 -0.0307257 0.0663502
-0.0173077 -0.00396874 0.0448521
-0.023329 -0.0376739 0.0424657
-0.0251169 -0.0149563 0.0632803
-0.0342157 -0.0017015 0.0475497
-0.00180244 -0.0290143 0.0732838
0.0343894 -0.0039289 0.0773127
0.0382363 -0.0271284 0.0441669
-0.000455685 -0.0295076 0.0476001
0.00920982 -0.00887088 0.0723455
0.00860027 -0.019075 0.0422149
0.0223932 -0.0405908 0.0422954
0.00395427 -0.00645467 0.0437784
0.0316878 -0.005762 0.0456748
0.0221696 -0.014228 0.078441
0.0220542 -0.0244038 0.0447541
0.0253228 -0.0306047 0.0762084
0.0312371 -0.0176608 0.0576152
0.0124075 -0.02554 0.067081
-0.00977067 0.0341624 0.0444195
-0.0261903 0.0276135 0.0478272
-0.0159107 0.0126269 0.0445225
-0.0306243 0.018993 0.0575593
-0.0172515 0.0259692 0.0590822
-0.0334649 0.012021 0.046881
-0.0234132 0.00512758 0.0593539
0.0276637 0.0309273 0.0613796
0.017947 2.92917e-05 0.0445524
0.0301047 0.0357693 0.0468867
0.0316431 0.010561 0.0425512
0.00970903 0.0206807 0.0443758
0.010919 0.0295566 0.0610324
0.016107 0.0160152 0.0686026
0.033587 0.0231493 0.0479997
0.00538142 0.00788437 0.0437823
0.0057059 0.0053791 0.0685844
0.0196918 0.00214021 0.0758697
0.0311247 0.0106618 0.0689009
0.013044 0.034269 0.0437353
0.00155896 0.0171715 0.0605635
0.0368036 -0.020094 0.0810935
0.0381625 -0.0368601 0.0797681
-0.027013 -0.106421 0.0834446
-0.0212919 -0.0919984 0.0763227
-0.0286365 -0.109138 0.0726073
-0.00935033 -0.100681 0.0819846
-0.0100896 -0.115362 0.0897022
-0.0348851 -0.100535 0.069371
-0.0308727 -0.0795157 0.068907
-0.0382548 -0.0887041 0.0823634
-0.0485959 -0.0806847 0.070461
-0.0435159 -0.0916781 0.0706664
-0.0535908 -0.0693178 0.0764347
-0.0502741 -0.0598758 0.0657962
-0.0409518 -0.0738899 0.082409
-0.032948 -0.0635769 0.0703581
-0.0565305 -0.0551926 0.0786497
-0.0424937 -0.0529791 0.0808774
-0.0544274 -0.0471168 0.0672292
-0.0395351 -0.0392175 0.0749814
-0.057302 -0.0393633 0.0782912
-0.0608664 -0.0269227 0.0715914
-0.04906 -0.0266749 0.0798361
-0.0510029 -0.0226978 0.061299
-0.0650778 -0.00322381 0.0656146
-0.0625798 0.00883233 0.0709519
-0.0603557 -0.0141117 0.0745472
-0.046507 -0.0138842 0.0735083
-0.0530294 -0.00872376 0.058212
-0.0494981 0.00635062 0.0640598
-0.0693325 0.0115248 0.0626065
-0.0602407 0.0137351 0.0536579
-0.0643288 0.0248034 0.0671149
-0.0545371 0.0266402 0.0557354
-0.0699364 0.0341389 0.0596126
-0.062135 0.0473933 0.0648652
-0.0695639 0.0549529 0.0578011
-0.0642432 0.0351328 0.0505493
-0.0565165 0.0467396 0.0514715
-0.0628227 0.0583397 0.0496745
-0.0604437 0.0634211 0.0648777
-0.0521912 0.0676525 0.0536375
-0.0033496 -0.00335118 0.541334
0.00335124 -0.003351 0.541334
-0.00334969 0.00334975 0.541334
0.00335115 0.00334975 0.541334
-0.0492746 0.0816063 0.069551
-0.0559789 0.0920241 0.0621925
-0.0386508 0.0838859 0.0604959
-0.0434511 0.0962138 0.0559012
-0.0470303 0.098816 0.0728021
-0.0404179 0.111291 0.0766252
-0.0317487 0.0971124 0.0634406
-0.0330324 0.110627 0.0687375
-0.0342673 0.106601 0.086357
-0.0307928 0.11725 0.0878188
-0.0190536 0.104758 0.0775597
-0.0191713 0.118952 0.0843938
-0.020787 0.11433 0.0997422
-0.0111103 0.118136 0.106909
-0.00988601 0.105459 0.0920485
-0.00348739 0.118313 0.0957171
-0.00569752 0.107838 0.113843
0.0025019 0.115433 0.116354
0.00138337 0.102801 0.103807
0.0134029 0.111123 0.105744
0.0123147 0.10658 0.122696
0.0239185 0.113105 0.124094
0.0185691 0.10003 0.116224
0.0319256 0.104756 0.112536
0.0344269 0.103526 0.129897
0.0393774 0.115323 0.124749
0.040178 0.0984493 0.122596
0.049802 0.10495 0.118368
0.0553943 0.109993 0.132926
0.0581389 0.123569 0.127362
0.0621214 0.107295 0.125326
0.0699983 0.116546 0.121961
0.0706254 0.121336 0.137338
0.069613 0.132918 0.125813
0.0813568 0.12295 0.130486
0.0856104 0.135975 0.126706
0.0792958 0.138578 0.145507
0.0768576 0.147298 0.13303
0.0912811 0.136065 0.139487
0.0926175 0.150868 0.133723
0.0822069 0.152272 0.153431
0.0815651 0.161597 0.141478
0.0968211 0.150041 0.148895
0.0963878 0.165108 0.143044
0.0852616 0.165926 0.162488
0.0859018 0.174066 0.151633
0.099867 0.163353 0.158645
0.0985832 0.178407 0.155384
0.0881944 0.177887 0.173791
0.0899255 0.189191 0.168831
0.102554 0.176013 0.170758
0.101593 0.190411 0.16952
0.0921047 0.188072 0.186609
0.0938195 0.201306 0.185387
0.10542 0.187194 0.185205
0.105625 0.201249 0.187955
0.0999911 0.197253 0.203092
0.0980119 0.210056 0.203337
0.112128 0.193977 0.204288
0.112397 0.210123 0.204923
0.105674 0.201787 0.222511
0.10303 0.218978 0.223168
0.122842 0.199006 0.222405
0.122842 0.219006 0.222405
0.114333 0.206088 0.242119
0.114333 0.226088 0.242119
0.134333 0.206088 0.242119
0.134333 0.226088 0.242119
0.125745 0.212313 0.261844
0.125745 0.232313 0.261844
0.145745 0.212313 0.261844
0.145745 0.232313 0.261844
