0.129623 0.142216 0.0784411
0.120512 0.129563 0.0456922
0.134606 0.129288 0.0570747
0.14505 0.139292 0.047813
0.13263 0.160978 0.0634329
0.150768 0.144468 0.0727523
0.132388 0.156935 0.0463937
0.155874 0.145414 0.0484665
0.124468 0.129492 0.0707949
0.121731 0.120997 0.057765
0.147856 0.13631 0.0617382
0.132975 0.138277 0.042412
0.173364 0.155357 0.0639169
0.162903 0.14357 0.0616011
0.162078 0.154652 0.0736021
0.166424 0.154093 0.0480253
0.178199 0.160834 0.0516383
0.125445 0.183188 0.0443959
0.147082 0.170402 0.0616652
0.145452 0.185621 0.0660306
0.14893 0.195512 0.0484858
0.12924 0.184096 0.0679621
0.121052 0.170027 0.0660516
0.153777 0.182626 0.0423097
0.146748 0.165189 0.0437868
0.133164 0.172328 0.0422366
0.158146 0.189144 0.0787819
0.133758 0.195458 0.04745
0.200099 0.195288 0.0702251
0.170708 0.178796 0.0778954
0.16868 0.183267 0.0533911
0.160759 0.168593 0.0426035
0.181027 0.173115 0.0429881
0.18683 0.169566 0.0592691
0.187169 0.191618 0.0735927
0.175069 0.19263 0.0770021
0.193458 0.180729 0.0653807
0.194084 0.177066 0.0467725
0.169826 0.167465 0.0739898
0.165003 0.195568 0.0422763
0.184687 0.189534 0.0446122
0.188372 0.20323 0.0434118
0.140983 0.148907 0.0805889
0.133751 0.156928 0.087661
0.125316 0.190571 0.0918805
0.121965 0.16294 0.0904013
0.13432 0.175468 0.0902803
0.139083 0.190128 0.087102
0.145546 0.166253 0.0836428
0.157336 0.174317 0.0812848
0.215558 0.197225 0.0685614
0.216942 0.184921 0.0587956
0.235004 0.194109 0.0445082
0.208719 0.192077 0.0437839
0.231233 0.190915 0.0597812
0.223239 0.188956 0.0456163
0.204916 0.180051 0.0533981
0.266351 0.197729 0.0732862
0.266225 0.194332 0.0473527
0.265985 0.188937 0.0608421
0.277627 0.185733 0.0550327
0.245587 0.195559 0.0492856
0.254133 0.195217 0.0619476
0.282463 0.191509 0.0745042
0.290887 0.185644 0.0648919
0.303191 0.183617 0.0575796
0.280953 0.191623 0.0442989
0.306047 0.192179 0.0706847
0.295813 0.189341 0.0455858
0.309169 0.192344 0.044272
0.295026 0.199358 0.0795346
0.317708 0.184183 0.0625848
0.333318 0.181894 0.0556184
0.322021 0.188195 0.047452
0.349985 0.186344 0.0494301
0.346031 0.183124 0.0656915
0.328046 0.197639 0.079151
0.336294 0.191133 0.0448712
0.343755 0.190669 0.078101
0.330237 0.185747 0.0704997
0.0612329 0.209124 0.0621644
0.0728574 0.20959 0.0525583
0.0688713 0.21817 0.0693666
0.107604 0.237992 0.0552752
0.104194 0.226473 0.049313
0.0969714 0.211129 0.0452723
0.0833494 0.199624 0.0647984
0.115505 0.220487 0.0428783
0.0828245 0.224755 0.0626255
0.112032 0.203385 0.0453383
0.0923528 0.222424 0.054052
0.0842142 0.20439 0.0435116
0.0890888 0.232935 0.07505
0.109039 0.214273 0.0675682
0.11867 0.247817 0.0533441
0.100696 0.239239 0.0703084
0.111643 0.246869 0.0666587
0.0768657 0.22527 0.0775481
0.0728206 0.202496 0.0952692
0.0699091 0.212826 0.0849947
0.0898683 0.221839 0.0875407
0.114482 0.236519 0.0819905
0.115137 0.204148 0.0830264
0.0854903 0.209829 0.0929953
0.112533 0.218711 0.0847484
0.101655 0.229545 0.0846812
0.09332 0.205645 0.0777182
0.157925 0.228837 0.0619128
0.139801 0.236352 0.0439247
0.124775 0.217762 0.0647659
0.128949 0.209381 0.042934
0.12733 0.227352 0.0453843
0.144412 0.213976 0.0419993
0.15994 0.213669 0.0674413
0.153798 0.224819 0.0463353
0.150419 0.218668 0.0788175
0.160283 0.210513 0.0438773
0.1412 0.209653 0.0650478
0.134018 0.230873 0.0615822
0.143351 0.204277 0.0807009
0.197891 0.217901 0.0431686
0.180613 0.206157 0.0675159
0.194452 0.210462 0.0694634
0.17498 0.210166 0.04495
0.184789 0.218431 0.0464101
0.165937 0.201879 0.0703731
0.175105 0.230804 0.0604861
0.195872 0.223195 0.0676425
0.158035 0.239609 0.0420854
0.145549 0.252984 0.0447081
0.13115 0.258348 0.0577684
0.147775 0.260437 0.0569732
0.15927 0.255367 0.0470467
0.130526 0.249559 0.0473332
0.140393 0.256485 0.0700586
0.124764 0.252504 0.0696029
0.155488 0.257544 0.0687638
0.172942 0.241129 0.0446762
0.18274 0.246514 0.0786292
0.179847 0.260829 0.0653143
0.181243 0.255518 0.0428636
0.186471 0.238297 0.0493464
0.195477 0.24921 0.0432771
0.172466 0.23793 0.0744107
0.192935 0.234292 0.071355
0.168558 0.254994 0.0743705
0.190224 0.264923 0.0525261
0.170576 0.258914 0.0520777
0.190681 0.258413 0.0746677
0.131149 0.203108 0.0866081
0.13976 0.227955 0.0852941
0.153204 0.233474 0.0817543
0.126464 0.224737 0.0853366
0.143289 0.244499 0.0814839
0.129022 0.240506 0.0818193
0.159164 0.245961 0.0799537
0.22248 0.212486 0.0446786
0.227663 0.231074 0.0759103
0.20881 0.206851 0.044454
0.228139 0.204184 0.0689467
0.210316 0.211935 0.0693042
0.231511 0.231412 0.0432553
0.206209 0.230026 0.0490105
0.218345 0.226175 0.0444056
0.233429 0.216574 0.0757651
0.217994 0.223934 0.0679552
0.241937 0.226803 0.0561575
0.26389 0.219785 0.0573326
0.257788 0.238596 0.0420555
0.265208 0.211599 0.0795029
0.251016 0.218154 0.0455268
0.262665 0.208616 0.0430511
0.251101 0.217104 0.0788129
0.238764 0.209857 0.0423324
0.244854 0.207234 0.0687149
0.276602 0.216627 0.0440441
0.271419 0.229926 0.0428198
0.277694 0.22452 0.0661404
0.235373 0.277227 0.0523686
0.227116 0.279386 0.0734162
0.204445 0.262642 0.0746363
0.198354 0.246004 0.0779267
0.236268 0.261405 0.0649024
0.222735 0.264242 0.0431625
0.211544 0.244141 0.0748156
0.211123 0.250293 0.0428871
0.228036 0.248257 0.0449137
0.202432 0.265585 0.0459123
0.214919 0.271656 0.0516985
0.201994 0.270721 0.0597591
0.235572 0.244426 0.0665142
0.213644 0.244071 0.0581108
0.215359 0.273808 0.0663113
0.237022 0.262654 0.0444902
0.248346 0.271029 0.0438498
0.262953 0.265502 0.042465
0.264997 0.251844 0.0434432
0.278408 0.246717 0.05582
0.243459 0.240219 0.0447485
0.263725 0.240843 0.0662832
0.268963 0.268126 0.0635064
0.258764 0.272338 0.0710805
0.253714 0.249415 0.057062
0.253877 0.231848 0.0828923
0.267273 0.237203 0.081856
0.27733 0.20171 0.0821425
0.275048 0.222607 0.0835479
0.240859 0.228619 0.0824932
0.23151 0.273168 0.0873914
0.233091 0.255836 0.0876284
0.219239 0.265937 0.0815014
0.222127 0.250805 0.0813706
0.277692 0.255934 0.100527
0.262446 0.274624 0.105839
0.244771 0.244893 0.0832732
0.248702 0.277368 0.0996624
0.2422 0.264378 0.0941919
0.254696 0.258055 0.0763498
0.255685 0.264796 0.0982061
0.266353 0.258061 0.0889568
0.293407 0.211484 0.0651793
0.28785 0.238935 0.0420613
0.304747 0.208998 0.0419168
0.287687 0.204505 0.0429534
0.29337 0.228435 0.0633612
0.311433 0.208766 0.0630877
0.305556 0.239872 0.0427718
0.310045 0.224144 0.0456236
0.311547 0.223863 0.0729286
0.29319 0.223834 0.0455191
0.321632 0.210481 0.0418121
0.33739 0.204697 0.0420803
0.345224 0.22544 0.0441494
0.356774 0.232247 0.0672175
0.347427 0.209035 0.0627586
0.343076 0.224084 0.0702304
0.330404 0.208193 0.0636589
0.32775 0.223965 0.043154
0.351888 0.211378 0.0443803
0.33403 0.236845 0.0758505
0.326627 0.226361 0.0647119
0.316277 0.277106 0.0657132
0.279576 0.267465 0.0431502
0.287325 0.277649 0.066607
0.312289 0.267243 0.0446126
0.288276 0.25334 0.0421899
0.301603 0.241801 0.0641199
0.295486 0.267331 0.0439145
0.301353 0.27408 0.0644328
0.30113 0.257105 0.062232
0.313318 0.251871 0.0430475
0.280698 0.260763 0.0702188
0.282776 0.245631 0.077403
0.342635 0.266518 0.0457637
0.348694 0.246178 0.0587258
0.325047 0.243849 0.0636811
0.323741 0.239424 0.0427259
0.341072 0.239447 0.0436781
0.327525 0.262015 0.0440181
0.330976 0.274487 0.0639725
0.341797 0.253484 0.0426656
0.323429 0.259855 0.0648534
0.348404 0.253083 0.0744435
0.34645 0.271273 0.0618591
0.305371 0.225113 0.0974338
0.288773 0.210533 0.0855606
0.312041 0.210014 0.0835587
0.315957 0.217142 0.0938962
0.296184 0.235152 0.100356
0.291441 0.224388 0.0884893
0.319581 0.228493 0.100911
0.349009 0.237982 0.0941867
0.341845 0.222317 0.0938618
0.357115 0.199492 0.0824499
0.328637 0.21132 0.0884484
0.358704 0.225604 0.0905738
0.341472 0.20182 0.0867128
0.353162 0.211788 0.090837
0.333753 0.232807 0.100367
0.311504 0.281171 0.0814945
0.299302 0.25772 0.113739
0.282079 0.26392 0.111266
0.286668 0.277795 0.0810259
0.282611 0.242817 0.0942435
0.307903 0.247342 0.104887
0.303689 0.243367 0.0796587
0.290993 0.246494 0.105912
0.304302 0.267619 0.0974121
0.315654 0.266516 0.0868249
0.299789 0.258825 0.0828403
0.279466 0.270787 0.0903056
0.339275 0.263443 0.0808465
0.354704 0.268014 0.0805124
0.346554 0.258581 0.105309
0.321707 0.265297 0.114292
0.349175 0.274243 0.107299
0.35967 0.25629 0.0996397
0.337838 0.246694 0.104104
0.328351 0.259201 0.0881901
0.319796 0.24283 0.0800493
0.332308 0.259941 0.110768
0.321587 0.243257 0.10354
0.273634 0.297631 0.0595773
0.239693 0.284473 0.0648315
0.248146 0.285502 0.0532799
0.261492 0.292688 0.0545294
0.275203 0.289549 0.0473113
0.261378 0.282586 0.0440963
0.263228 0.290937 0.0699698
0.240117 0.284437 0.0781755
0.249887 0.287214 0.0873903
0.266246 0.288662 0.108648
0.259121 0.291328 0.0978005
0.275882 0.298255 0.100842
0.266003 0.291317 0.083003
0.314725 0.297268 0.0459089
0.288673 0.302085 0.0762484
0.286828 0.282166 0.0444972
0.285661 0.302634 0.0614156
0.29948 0.289941 0.0447282
0.300158 0.306564 0.0644938
0.313693 0.281653 0.0430134
0.295927 0.300822 0.0519277
0.312798 0.305308 0.0570002
0.32589 0.302684 0.067527
0.32823 0.302889 0.0537403
0.354896 0.287071 0.0469198
0.328202 0.289079 0.044107
0.351791 0.293616 0.0734387
0.342392 0.280995 0.0420612
0.340931 0.300647 0.0642353
0.356533 0.294632 0.058869
0.342834 0.296584 0.0497517
0.296759 0.281566 0.0967445
0.280434 0.297443 0.0870022
0.288437 0.299464 0.108962
0.301931 0.298688 0.112382
0.316853 0.296821 0.112728
0.310026 0.299067 0.0989598
0.297194 0.300365 0.0903219
0.305293 0.302572 0.0773206
0.319351 0.297163 0.0791046
0.325002 0.296364 0.0986875
0.355848 0.291779 0.0866462
0.332366 0.280021 0.0916939
0.350833 0.289091 0.100641
0.33855 0.293248 0.101458
0.335414 0.290675 0.077972
0.309115 0.269833 0.119347
0.293732 0.269772 0.120049
0.281136 0.276206 0.116885
0.335308 0.275625 0.114885
0.278198 0.291711 0.115177
0.307506 0.28627 0.121386
0.291922 0.287707 0.120798
0.321183 0.280502 0.120547
0.330776 0.290533 0.11352
0.476657 0.0670728 0.04841
0.468791 0.07581 0.0570126
0.471897 0.0607832 0.0623709
0.481054 0.0527626 0.050006
0.495891 0.0564454 0.0432018
0.506196 0.0688658 0.0469078
0.509521 0.0445381 0.0450637
0.50605 0.0461886 0.0675548
0.497997 0.0584041 0.0673185
0.512771 0.0666851 0.0691241
0.491926 0.0412505 0.0452178
0.477796 0.0467154 0.0601878
0.518877 0.0570071 0.0458279
0.486052 0.0655375 0.0737659
0.491059 0.0729567 0.0429024
0.466217 0.118494 0.0696336
0.464411 0.087318 0.0667634
0.464358 0.0909412 0.0514757
0.452811 0.111711 0.0588996
0.461004 0.102863 0.0659378
0.47628 0.0827656 0.0442022
0.47396 0.099935 0.0427741
0.461146 0.104729 0.0475034
0.458197 0.118822 0.0438193
0.486085 0.0792343 0.0762515
0.491459 0.0933917 0.0714067
0.48441 0.103206 0.0630216
0.509635 0.107428 0.0617074
0.504935 0.11342 0.0447866
0.489635 0.107192 0.0428668
0.503995 0.0952788 0.0457848
0.491931 0.0893397 0.0433472
0.480527 0.120458 0.0461703
0.514351 0.080735 0.0451779
0.496616 0.0811477 0.0644082
0.512998 0.0843882 0.0682916
0.495554 0.117705 0.0661973
0.455927 0.0632834 0.0903567
0.462375 0.0551287 0.0805123
0.48119 0.064615 0.0956579
0.457295 0.0781784 0.0932462
0.460949 0.0699754 0.0781333
0.483709 0.0795703 0.0978155
0.470556 0.0447705 0.0787556
0.467256 0.0664171 0.10123
0.461643 0.0531369 0.0972478
0.485738 0.0442806 0.100188
0.519104 0.0750379 0.0932444
0.49626 0.0601222 0.0934517
0.509308 0.047709 0.091243
0.502895 0.0737096 0.093722
0.513486 0.0606373 0.0928999
0.493813 0.0441712 0.0853787
0.469401 0.113178 0.104382
0.461267 0.094298 0.0926952
0.471281 0.0981898 0.104604
0.46148 0.0862961 0.080414
0.468568 0.0823877 0.102642
0.464984 0.108436 0.0898788
0.505823 0.085735 0.090933
0.484658 0.106464 0.102943
0.485747 0.0920043 0.0982696
0.502635 0.100996 0.0858104
0.516456 0.113328 0.0863065
0.517495 0.0982531 0.0915238
0.479435 0.10382 0.0798375
0.494803 0.114238 0.0929407
0.433547 0.138539 0.0629436
0.438108 0.158395 0.0425116
0.430653 0.144392 0.0469617
0.429461 0.160154 0.0702796
0.409542 0.160216 0.0512598
0.421535 0.155156 0.0462735
0.425422 0.149334 0.0608412
0.377345 0.177716 0.0458622
0.375469 0.193827 0.0419932
0.389723 0.194251 0.0795612
0.39503 0.199285 0.0533116
0.387558 0.184905 0.0688624
0.375989 0.178144 0.0614034
0.363939 0.182021 0.048369
0.361989 0.199793 0.045612
0.361132 0.183013 0.06389
0.367379 0.194085 0.0733063
0.391474 0.185178 0.0432957
0.38725 0.170411 0.0533909
0.399616 0.169824 0.044929
0.405523 0.173398 0.0703129
0.430711 0.189396 0.0685138
0.402001 0.185263 0.0784439
0.415453 0.170061 0.0427909
0.418326 0.168207 0.0710175
0.432134 0.175799 0.079566
0.41066 0.188431 0.0524732
0.418046 0.182344 0.079084
0.436472 0.200509 0.0439707
0.416541 0.19736 0.0774579
0.404116 0.200648 0.0808393
0.435866 0.17306 0.0465406
0.399389 0.166132 0.0593229
0.4254 0.184591 0.0432453
0.453256 0.152622 0.0447991
0.453919 0.135917 0.0434609
0.446373 0.149073 0.0775576
0.467878 0.155867 0.0444333
0.443124 0.130683 0.0658898
0.473285 0.144598 0.0553938
0.454485 0.131205 0.0696376
0.45086 0.154801 0.0612608
0.4686 0.130873 0.0449048
0.438505 0.132695 0.0487955
0.445025 0.121377 0.0525147
0.513165 0.120778 0.0704075
0.482757 0.124128 0.0713053
0.491392 0.134611 0.0650202
0.488381 0.151584 0.0450899
0.495417 0.125959 0.0436924
0.505839 0.14376 0.0711039
0.516591 0.154518 0.0615897
0.517956 0.149535 0.0455486
0.483347 0.136609 0.0424046
0.519211 0.120961 0.0443297
0.504657 0.139804 0.045181
0.50866 0.158292 0.0478259
0.481246 0.144875 0.0736103
0.50222 0.160494 0.0633013
0.45053 0.179227 0.0471645
0.4428 0.189028 0.0433022
0.474261 0.172883 0.0456513
0.462088 0.172695 0.0672209
0.467943 0.159492 0.0724636
0.459651 0.168444 0.0427204
0.467252 0.19557 0.0648141
0.470346 0.185188 0.0559358
0.48248 0.18714 0.064436
0.4458 0.184816 0.0612923
0.489776 0.178966 0.0746236
0.484826 0.159124 0.0684089
0.498008 0.166576 0.050097
0.486449 0.177308 0.0538626
0.487573 0.167142 0.0424746
0.469175 0.133831 0.0772009
0.474962 0.12722 0.106237
0.458313 0.147505 0.0836153
0.47388 0.152386 0.0963862
0.469152 0.13756 0.0981335
0.466196 0.122764 0.094805
0.49548 0.137181 0.10034
0.499795 0.128179 0.0883497
0.497648 0.150292 0.0975036
0.479901 0.141427 0.104159
0.490056 0.122608 0.102263
0.503309 0.142622 0.0868835
0.466304 0.195778 0.0803541
0.439965 0.161911 0.0816863
0.467906 0.181543 0.0885509
0.454545 0.161633 0.0863344
0.453861 0.186913 0.0840184
0.446735 0.175219 0.0835654
0.474789 0.167664 0.0929602
0.480864 0.190244 0.0790473
0.493071 0.170634 0.0865245
0.483225 0.180526 0.0893099
0.499162 0.15814 0.0865733
0.487545 0.160646 0.0981743
0.55411 0.0556913 0.0507746
0.541903 0.05418 0.0798876
0.556574 0.0791015 0.0718757
0.523763 0.0554949 0.0640764
0.556595 0.0699074 0.0477425
0.544272 0.0640215 0.0429075
0.53488 0.0514347 0.0433814
0.528508 0.0693568 0.043105
0.552844 0.050668 0.0660951
0.548103 0.0416653 0.0534337
0.530724 0.0691717 0.0644519
0.543966 0.0398433 0.072797
0.550879 0.0649932 0.0756883
0.560789 0.0642842 0.0625203
0.563366 0.0785618 0.0583034
0.550845 0.101288 0.0532463
0.529797 0.112156 0.0448976
0.547285 0.0893896 0.0423754
0.520507 0.0969411 0.0430764
0.558218 0.0865204 0.0492669
0.545009 0.0800314 0.0798958
0.540773 0.108878 0.0761162
0.53861 0.102463 0.0441828
0.521311 0.0984696 0.0659382
0.557377 0.0925709 0.0643808
0.531477 0.0844968 0.0442395
0.529094 0.0852394 0.0650394
0.548238 0.103566 0.0650988
0.529702 0.0456169 0.0826511
0.528479 0.0598123 0.087588
0.533346 0.0741876 0.0878207
0.528326 0.0888834 0.0912448
0.54058 0.0944075 0.0820382
0.528829 0.119935 0.0822664
0.530546 0.105346 0.0885429
0.534903 0.134107 0.0617331
0.528181 0.1442 0.0545145
0.519378 0.134883 0.0432631
0.538892 0.121968 0.0677845
0.523635 0.143162 0.0688453
0.526884 0.131386 0.0756078
0.534743 0.121444 0.0532168
0.394703 0.210852 0.0807056
0.396459 0.239484 0.0483003
0.399368 0.220323 0.065274
0.382999 0.233599 0.0784571
0.375923 0.219376 0.0437002
0.382988 0.234707 0.0429286
0.373873 0.204989 0.0605716
0.386912 0.21127 0.0434826
0.362467 0.224465 0.0448949
0.383929 0.223806 0.0637847
0.397643 0.225155 0.0424062
0.363448 0.218567 0.0633574
0.413528 0.21976 0.0769088
0.430001 0.217512 0.0757094
0.431475 0.219275 0.0497593
0.422729 0.228399 0.0517204
0.416833 0.206264 0.0609931
0.40669 0.200396 0.0410893
0.404454 0.215012 0.0481114
0.422115 0.200876 0.0435014
0.420463 0.228804 0.0773736
0.397441 0.262 0.0646882
0.386023 0.269706 0.0695316
0.361826 0.240776 0.0456498
0.363832 0.257034 0.0437963
0.368749 0.244599 0.0701121
0.374897 0.247996 0.0433964
0.382873 0.246861 0.0648972
0.367609 0.268993 0.0467499
0.380519 0.25917 0.0511034
0.377846 0.273209 0.0575694
0.364341 0.260621 0.071592
0.40851 0.256822 0.0754265
0.418347 0.249338 0.0671407
0.406299 0.243598 0.0497668
0.427549 0.237104 0.0648786
0.406459 0.254651 0.0578601
0.418084 0.242149 0.0530091
0.367503 0.213502 0.0867501
0.399291 0.234385 0.0812913
0.381132 0.218868 0.0821259
0.37888 0.203091 0.0822947
0.375089 0.277103 0.0953668
0.36432 0.239316 0.0876095
0.396158 0.261906 0.0818142
0.364434 0.270131 0.103174
0.380713 0.274769 0.0821175
0.386038 0.251929 0.0904234
0.371935 0.250214 0.0937221
0.378747 0.262764 0.0961532
0.399241 0.247371 0.08655
0.411777 0.240826 0.0811146
0.436198 0.203247 0.0771403
0.446179 0.212849 0.0749227
0.443751 0.211236 0.0507272
0.438205 0.22639 0.0597227
0.449629 0.216193 0.0613648
0.455805 0.204913 0.0618155
0.451385 0.200923 0.0801415
0.367858 0.2853 0.0666506
0.366725 0.281948 0.0517676
0.369877 0.285914 0.0818536
0.363986 0.286395 0.097203
0.139377 -0.279168 0.0626372
0.150038 -0.283485 0.0507842
0.154087 -0.28014 0.0668077
0.163004 -0.28692 0.0535369
0.19128 -0.28774 0.0538687
0.190377 -0.27965 0.0699154
0.183995 -0.279516 0.0444047
0.176836 -0.287632 0.0531045
0.168558 -0.281837 0.0672518
0.203954 -0.287546 0.0610381
0.230199 -0.285632 0.0615077
0.216632 -0.281991 0.0681109
0.204591 -0.282787 0.0467266
0.217776 -0.285488 0.0517692
0.243488 -0.283265 0.0557642
0.0902436 -0.253907 0.056168
0.102476 -0.261135 0.0499784
0.0837062 -0.242871 0.0654317
0.0855006 -0.241816 0.0490635
0.11509 -0.267822 0.0482303
0.0991279 -0.24795 0.0437747
0.12183 -0.274046 0.064087
0.10883 -0.270351 0.0615141
0.112366 -0.254808 0.0768391
0.0951475 -0.250982 0.0743435
0.0995723 -0.261861 0.0666656
0.11488 -0.24544 0.0411544
0.0645414 -0.220388 0.0602421
0.0598462 -0.201238 0.0440704
0.0727637 -0.223759 0.0703577
0.0723761 -0.220986 0.0453775
0.0770471 -0.20315 0.044056
0.0679707 -0.208909 0.0707999
0.0606032 -0.211852 0.0503223
0.0742078 -0.233112 0.0566081
0.093752 -0.212636 0.0635971
0.0828474 -0.226576 0.0795834
0.0898208 -0.213955 0.0433774
0.118825 -0.233778 0.0634608
0.106349 -0.23363 0.0431659
0.105036 -0.212814 0.0425548
0.101837 -0.226866 0.062229
0.112313 -0.212922 0.0632575
0.11765 -0.220509 0.0425468
0.0850295 -0.228843 0.043391
0.106698 -0.243459 0.0830791
0.112775 -0.200295 0.0823981
0.112886 -0.229061 0.0843454
0.114532 -0.215351 0.081352
0.0850557 -0.214028 0.0844386
0.0982316 -0.223564 0.0871374
0.0844089 -0.200135 0.0837698
0.100199 -0.207593 0.0882742
0.0915946 -0.23792 0.0801797
0.125952 -0.244543 0.0542174
0.147402 -0.267579 0.0713238
0.122842 -0.26278 0.071693
0.14041 -0.275844 0.0444559
0.158438 -0.260495 0.0747691
0.154041 -0.269148 0.0419844
0.128507 -0.263638 0.0415406
0.127868 -0.277085 0.0516014
0.155203 -0.245839 0.0779241
0.151266 -0.253244 0.047701
0.136675 -0.258065 0.0707006
0.140992 -0.24485 0.0739194
0.137208 -0.251282 0.0444629
0.190699 -0.260914 0.0532388
0.198568 -0.241649 0.0565423
0.179275 -0.252899 0.0411203
0.189861 -0.255516 0.0775173
0.183506 -0.26572 0.0762796
0.176237 -0.273177 0.0733152
0.164343 -0.247948 0.0415857
0.167019 -0.253014 0.0758251
0.171745 -0.260339 0.0524356
0.177217 -0.243106 0.065446
0.199341 -0.244579 0.0796027
0.169938 -0.275745 0.0424818
0.144737 -0.23727 0.0427398
0.133144 -0.231457 0.0753618
0.133133 -0.204443 0.0705357
0.130209 -0.230084 0.0437267
0.136572 -0.198736 0.0550951
0.148357 -0.222436 0.0716555
0.128286 -0.206676 0.0449192
0.145917 -0.208571 0.0642084
0.15006 -0.212737 0.0470551
0.156965 -0.23209 0.0761627
0.13952 -0.219431 0.0439627
0.134981 -0.218131 0.0729831
0.156233 -0.238655 0.0551206
0.175594 -0.229063 0.0496159
0.17367 -0.203338 0.0549397
0.197298 -0.220438 0.0586061
0.169627 -0.22892 0.0764649
0.174708 -0.213983 0.0422152
0.167464 -0.213809 0.0673261
0.161608 -0.225119 0.0437321
0.196137 -0.229946 0.0438086
0.161993 -0.208798 0.049684
0.181955 -0.219648 0.0776914
0.193266 -0.202378 0.0735731
0.189078 -0.208584 0.0453991
0.17943 -0.206445 0.0700517
0.185257 -0.238946 0.0425906
0.183251 -0.235568 0.0784167
0.121116 -0.240921 0.0801416
0.199863 -0.214872 0.0806449
0.196089 -0.229196 0.081027
0.0702841 -0.16906 0.0778553
0.0569459 -0.188562 0.0430799
0.0497869 -0.176649 0.044329
0.0674381 -0.175822 0.0471888
0.0550871 -0.197532 0.0566212
0.072776 -0.194372 0.0779489
0.055157 -0.161764 0.0771777
0.0606871 -0.195319 0.0686691
0.0548489 -0.175251 0.0736081
0.0572668 -0.162397 0.0438288
0.0465069 -0.178586 0.0623657
0.066262 -0.182361 0.0773076
0.099591 -0.174648 0.0438539
0.105847 -0.171893 0.0764558
0.108777 -0.183566 0.0485091
0.0809571 -0.166795 0.063786
0.105505 -0.159351 0.0705143
0.0952639 -0.160379 0.0427323
0.0832264 -0.172845 0.0425709
0.118441 -0.190287 0.0725618
0.0828988 -0.18797 0.0631848
0.113226 -0.196967 0.0425109
0.108186 -0.173373 0.0592775
0.0963529 -0.19634 0.0624341
0.0804113 -0.18649 0.0461518
0.094626 -0.195184 0.0444826
0.0516197 -0.1358 0.0622377
0.0692049 -0.140725 0.0503027
0.0625633 -0.12282 0.06531
0.0666245 -0.125942 0.04239
0.0462407 -0.152334 0.0440477
0.045429 -0.150597 0.0713664
0.0522555 -0.132645 0.0457817
0.0676667 -0.153072 0.0413564
0.0726298 -0.140711 0.078308
0.0674129 -0.156871 0.0641017
0.0814184 -0.151135 0.04365
0.100941 -0.145486 0.0647409
0.105 -0.157943 0.0550127
0.0874479 -0.122903 0.0709568
0.0954152 -0.146891 0.0493837
0.0918454 -0.152476 0.0762784
0.0871646 -0.139788 0.0732023
0.0940216 -0.133057 0.0581817
0.0831356 -0.130293 0.0465607
0.0915472 -0.178732 0.0813243
0.0968278 -0.191958 0.086411
0.108479 -0.184954 0.0813878
0.0905234 -0.165311 0.0790709
0.0625792 -0.149985 0.080453
0.0754353 -0.125294 0.0830494
0.0558571 -0.138097 0.0836192
0.0610317 -0.124587 0.0876877
0.0410125 -0.133208 0.0815029
0.123322 -0.191664 0.0505327
0.127233 -0.191622 0.0638417
0.187292 -0.197672 0.0578313
0.229065 -0.272221 0.0736083
0.205042 -0.259801 0.079141
0.202264 -0.254384 0.0426382
0.213807 -0.257133 0.0627041
0.230118 -0.278836 0.0468023
0.234928 -0.26423 0.0429377
0.227247 -0.249493 0.0437462
0.202438 -0.269743 0.0423317
0.217859 -0.264299 0.0455984
0.23256 -0.246775 0.0598113
0.212741 -0.242504 0.0436676
0.203411 -0.274511 0.0725277
0.22082 -0.260912 0.07963
0.262392 -0.276091 0.0488407
0.251287 -0.258529 0.0420593
0.273396 -0.264569 0.074441
0.256051 -0.277456 0.0659196
0.269416 -0.277237 0.0623976
0.2503 -0.241439 0.0437212
0.242116 -0.277151 0.0705416
0.243928 -0.262169 0.0772834
0.277618 -0.272324 0.0476781
0.271083 -0.250034 0.0504526
0.266826 -0.263875 0.0428279
0.281822 -0.252066 0.0794339
0.24773 -0.252644 0.0621177
0.247327 -0.27482 0.0452459
0.255374 -0.239651 0.0667467
0.25859 -0.262886 0.07656
0.228785 -0.223612 0.0448745
0.206181 -0.212525 0.0429323
0.239531 -0.213454 0.0419776
0.214991 -0.233427 0.0650646
0.22339 -0.21397 0.0596513
0.231589 -0.226823 0.062552
0.208746 -0.201771 0.0777694
0.213518 -0.226186 0.0435579
0.218014 -0.200563 0.0425824
0.237624 -0.236891 0.0437594
0.26948 -0.210649 0.0433398
0.250824 -0.220008 0.0606212
0.277855 -0.211777 0.074027
0.262508 -0.236221 0.0431104
0.276794 -0.233927 0.0451568
0.267308 -0.224321 0.0565486
0.249973 -0.206518 0.0797792
0.281673 -0.227093 0.0743412
0.254619 -0.217374 0.0439889
0.263882 -0.21434 0.0790908
0.216491 -0.247368 0.0820809
0.23447 -0.252097 0.0824132
0.266615 -0.253406 0.0826174
0.229351 -0.239224 0.0833106
0.235755 -0.227257 0.0838288
0.217987 -0.213021 0.0811464
0.212058 -0.22643 0.080001
0.234538 -0.212392 0.0816699
0.273895 -0.23928 0.0815066
0.247135 -0.239481 0.0825739
0.249929 -0.221266 0.084421
0.26162 -0.231216 0.0813207
0.318754 -0.274318 0.0548423
0.297292 -0.255734 0.0433392
0.28532 -0.248242 0.0416333
0.28237 -0.246997 0.06364
0.301857 -0.267404 0.0455888
0.298335 -0.243517 0.0627528
0.291109 -0.274206 0.0499883
0.308817 -0.24207 0.041763
0.30909 -0.270602 0.0695279
0.294981 -0.267851 0.0678256
0.305352 -0.275882 0.0548853
0.315278 -0.247709 0.0640599
0.307301 -0.255334 0.0785985
0.318712 -0.252476 0.0488076
0.282731 -0.273921 0.0642078
0.345409 -0.276325 0.0658269
0.329442 -0.241198 0.0428659
0.342144 -0.250606 0.0645017
0.354973 -0.269912 0.0734294
0.331091 -0.271834 0.0486406
0.333667 -0.257496 0.0431582
0.345725 -0.244207 0.0437898
0.355706 -0.244361 0.067097
0.320911 -0.26679 0.0757236
0.346821 -0.266292 0.0450124
0.344356 -0.276292 0.0526421
0.330852 -0.275582 0.0636846
0.300941 -0.209168 0.0429679
0.307393 -0.229284 0.0446677
0.307645 -0.224784 0.0608648
0.292585 -0.218527 0.0565047
0.316019 -0.2087 0.0430287
0.312891 -0.203743 0.0784811
0.285148 -0.211129 0.0426132
0.291698 -0.23103 0.0430574
0.291562 -0.206755 0.0747247
0.328481 -0.20457 0.0764173
0.329397 -0.229376 0.05061
0.354164 -0.222396 0.0657204
0.335063 -0.237824 0.0652303
0.347828 -0.215193 0.0434414
0.347685 -0.228897 0.0448099
0.323924 -0.228674 0.0770937
0.321748 -0.215913 0.0575503
0.3332 -0.210422 0.0431802
0.342537 -0.210223 0.0650999
0.319321 -0.251424 0.0863821
0.343765 -0.264255 0.0828772
0.347115 -0.252371 0.0932622
0.333604 -0.245123 0.0879918
0.330549 -0.262297 0.0828258
0.359609 -0.26084 0.0826324
0.294806 -0.229033 0.0823352
0.317007 -0.215617 0.0823388
0.301424 -0.215645 0.0824779
0.309506 -0.229796 0.0841748
0.299336 -0.242743 0.0819382
0.347518 -0.209968 0.0863865
0.356724 -0.232603 0.0909127
0.348788 -0.22257 0.0875462
0.338465 -0.231257 0.0805292
0.20148 -0.198561 0.047606
0.213012 -0.188933 0.0531537
0.215511 -0.190793 0.0699295
0.227453 -0.187782 0.0638915
0.227105 -0.189022 0.0492683
0.22734 -0.199681 0.0764499
0.236237 -0.197149 0.0432979
0.201048 -0.192461 0.063164
0.272987 -0.197344 0.0661257
0.259282 -0.199497 0.0707108
0.241388 -0.191453 0.0570697
0.263227 -0.196983 0.0534551
0.250527 -0.200387 0.046843
0.276707 -0.19766 0.0476441
0.243965 -0.197258 0.0703964
0.318268 -0.190586 0.0481692
0.288888 -0.191939 0.0487529
0.287358 -0.193429 0.0662096
0.311768 -0.186924 0.0592785
0.297613 -0.186259 0.0579945
0.302918 -0.191892 0.0450217
0.303325 -0.194894 0.0713829
0.341319 -0.187747 0.0593297
0.35012 -0.187642 0.0721069
0.35202 -0.186577 0.0470027
0.341201 -0.199343 0.0782248
0.328256 -0.195247 0.0426953
0.321312 -0.194288 0.0664061
0.353093 -0.177704 0.0606666
0.342549 -0.194858 0.0453025
0.356963 -0.196728 0.0838629
0.0670923 -0.107587 0.0445979
0.0605807 -0.0939258 0.0428694
0.0465852 -0.090768 0.0419416
0.0800356 -0.11098 0.0790137
0.0513759 -0.115913 0.0455574
0.0604777 -0.0905022 0.0660092
0.0777209 -0.0931104 0.0437367
0.043611 -0.0824035 0.0660676
0.0697699 -0.0987774 0.0768194
0.051852 -0.11195 0.063447
0.0900311 -0.117733 0.0560217
0.0832344 -0.105828 0.0673744
0.0823769 -0.0866775 0.0571076
0.0844289 -0.102987 0.0521543
0.0817564 -0.116175 0.0445707
0.0592501 -0.0540676 0.0774315
0.0706932 -0.0645751 0.0470353
0.0453403 -0.0608062 0.0607659
0.064288 -0.0705624 0.0773157
0.0454934 -0.0566177 0.044683
0.0540686 -0.0800266 0.0797375
0.0607494 -0.0542872 0.0442935
0.0692528 -0.0507875 0.0664852
0.0746469 -0.0645199 0.0660687
0.059084 -0.0767846 0.0439929
0.0767492 -0.0778747 0.0441998
0.0742936 -0.0798875 0.0690068
0.0692916 -0.0445599 0.0513251
0.04357 -0.0720614 0.0445587
0.0807315 -0.0717559 0.0562231
0.0677918 -0.110221 0.0864609
0.0470418 -0.118008 0.0883013
0.0556713 -0.10213 0.0833806
0.0422728 -0.104243 0.0852553
0.0515361 -0.0639708 0.0839977
0.0400916 -0.0741393 0.0822369
0.0469957 -0.0451351 0.0807014
0.0567379 -0.0381368 0.042635
0.0539776 -0.00583297 0.0484049
0.0687838 -0.0294588 0.0511728
0.0644676 -0.0149725 0.0543443
0.0551161 -0.00990998 0.0653992
0.0424323 -0.0130438 0.0744843
0.0443226 -0.0368927 0.0575934
0.0413251 -0.0151838 0.0423486
0.0579442 -0.0210309 0.0431721
0.0564221 -0.0325413 0.0750792
0.0689989 -0.0363468 0.0656042
0.0642045 -0.022715 0.0669282
0.0410276 0.00293394 0.0452995
0.0485134 0.00343434 0.0586669
0.0444792 -0.0281856 0.0800039
0.390161 -0.24737 0.0515868
0.360134 -0.271092 0.0597322
0.381494 -0.252648 0.0691688
0.399475 -0.243113 0.0621234
0.362243 -0.26214 0.0485533
0.376784 -0.240009 0.0434463
0.372113 -0.261384 0.0604331
0.375903 -0.254396 0.049641
0.361464 -0.246405 0.0446806
0.365039 -0.233818 0.0681907
0.385729 -0.207623 0.0673766
0.370408 -0.215282 0.0682525
0.364564 -0.201384 0.0609662
0.360608 -0.209296 0.0446256
0.373869 -0.201656 0.0445308
0.389905 -0.208064 0.0444026
0.398635 -0.221718 0.0460909
0.376059 -0.217336 0.0454835
0.393467 -0.238033 0.0746547
0.379697 -0.228161 0.0644979
0.364597 -0.228073 0.0452412
0.391744 -0.234581 0.0427775
0.414623 -0.230009 0.0501227
0.403478 -0.203493 0.0639461
0.417937 -0.218731 0.0733743
0.411781 -0.232331 0.0655528
0.420336 -0.217835 0.046768
0.404257 -0.238929 0.0500433
0.425476 -0.224212 0.0621835
0.40509 -0.218365 0.0751301
0.424048 -0.209393 0.0721484
0.434849 -0.204556 0.0679584
0.432642 -0.21444 0.0515962
0.407947 -0.207612 0.0424722
0.373058 -0.254142 0.0806866
0.361958 -0.249458 0.0944319
0.37663 -0.243408 0.0934132
0.385641 -0.243957 0.0822853
0.381013 -0.210993 0.0950581
0.372593 -0.224936 0.0939568
0.395485 -0.210496 0.0832086
0.387863 -0.226071 0.0842787
0.361919 -0.211055 0.0907634
0.373223 -0.199305 0.088099
0.442665 -0.206966 0.0545174
0.387784 -0.173004 0.0431607
0.371972 -0.187951 0.08108
0.361439 -0.177041 0.0470752
0.365958 -0.178967 0.0712889
0.39237 -0.17251 0.0710943
0.383564 -0.164263 0.0587354
0.39829 -0.161147 0.0650427
0.399663 -0.193823 0.0421087
0.374218 -0.170062 0.0464659
0.388101 -0.193453 0.0802939
0.382566 -0.180395 0.0743861
0.368012 -0.170135 0.0596763
0.37544 -0.185249 0.0421169
0.395142 -0.163328 0.0476755
0.386156 -0.193274 0.0552633
0.406514 -0.181685 0.0489051
0.417445 -0.160603 0.045039
0.435724 -0.183091 0.0441883
0.419193 -0.188302 0.076466
0.429551 -0.178775 0.0830359
0.432182 -0.187329 0.068826
0.431682 -0.167665 0.0439206
0.415928 -0.193265 0.0452137
0.430763 -0.199103 0.0430214
0.418786 -0.164901 0.0734456
0.406124 -0.174952 0.0740013
0.407667 -0.191109 0.0714222
0.419554 -0.177353 0.0483828
0.429824 -0.155166 0.0797908
0.43986 -0.1412 0.0471257
0.405667 -0.157129 0.050354
0.412603 -0.154195 0.0612677
0.429329 -0.150823 0.0486765
0.426519 -0.150606 0.06502
0.448899 -0.196026 0.0644118
0.472563 -0.169623 0.0459645
0.447395 -0.179235 0.0702538
0.471463 -0.176692 0.0609986
0.461773 -0.179126 0.046798
0.461921 -0.165056 0.076818
0.446039 -0.195508 0.0452163
0.457264 -0.191477 0.0520398
0.441894 -0.170698 0.0816538
0.447952 -0.170966 0.0477767
0.460519 -0.184209 0.0646938
0.483991 -0.162154 0.0721968
0.482822 -0.168605 0.0582974
0.456241 -0.158846 0.0637195
0.451044 -0.142929 0.0796586
0.478716 -0.139119 0.0447411
0.447991 -0.128909 0.0457372
0.444998 -0.156488 0.0444796
0.439101 -0.145107 0.0704535
0.475858 -0.139291 0.0621936
0.446503 -0.120905 0.058749
0.466927 -0.156574 0.0444835
0.440606 -0.133898 0.0607217
0.464725 -0.130726 0.0450605
0.4569 -0.14494 0.0442981
0.462804 -0.137796 0.0695578
0.455658 -0.12219 0.071467
0.471606 -0.158106 0.0801963
0.50692 -0.137321 0.0789435
0.507342 -0.14418 0.0631593
0.50932 -0.130539 0.0437956
0.493146 -0.147503 0.0448963
0.491393 -0.129428 0.0429896
0.518949 -0.138565 0.067541
0.505062 -0.14042 0.0488475
0.49576 -0.152486 0.0718696
0.482879 -0.157865 0.0442152
0.492835 -0.158286 0.0575536
0.487351 -0.128118 0.0637333
0.468808 -0.116667 0.105206
0.452827 -0.135133 0.0933736
0.457961 -0.126737 0.104363
0.478566 -0.140312 0.1003
0.474335 -0.13484 0.0841772
0.452554 -0.16219 0.0877141
0.519059 -0.130793 0.0811458
0.495366 -0.121606 0.0819371
0.493174 -0.140542 0.0830827
0.482715 -0.151379 0.0831069
0.491961 -0.129517 0.103274
0.404056 -0.21301 0.102321
0.413518 -0.209536 0.113497
0.436854 -0.142825 0.095843
0.424323 -0.154427 0.095104
0.41533 -0.167765 0.0963322
0.419414 -0.159625 0.108863
0.437481 -0.174428 0.103666
0.430969 -0.167702 0.116701
0.430862 -0.147735 0.107906
0.392818 -0.196519 0.114379
0.419406 -0.196936 0.108519
0.404278 -0.201093 0.125219
0.410154 -0.172577 0.10953
0.413337 -0.190399 0.121276
0.401382 -0.185093 0.11128
0.39976 -0.196222 0.0991071
0.422281 -0.179053 0.118523
0.428166 -0.185029 0.105553
0.41203 -0.186007 0.095168
0.447985 -0.164448 0.103309
0.458746 -0.153967 0.104157
0.440821 -0.156919 0.115309
0.452459 -0.14587 0.115513
0.474481 -0.122675 0.11713
0.469183 -0.144726 0.109998
0.462672 -0.133831 0.116366
0.444082 -0.136327 0.106379
0.495378 -0.121585 0.115087
0.48318 -0.133609 0.113261
0.531247 -0.129283 0.0697706
0.526274 -0.129717 0.0561203
0.521022 -0.123329 0.047414
0.462336 -0.112333 0.0769532
0.46391 -0.098253 0.0781981
0.475518 -0.113641 0.0482949
0.458952 -0.0900438 0.0685114
0.453757 -0.109384 0.0608635
0.452603 -0.0799714 0.0617633
0.46046 -0.0893934 0.0505217
0.474504 -0.0903597 0.043053
0.462575 -0.103384 0.0478541
0.458055 -0.116615 0.0456471
0.485156 -0.101179 0.0444193
0.498482 -0.116605 0.0458619
0.508985 -0.0866183 0.0454534
0.495427 -0.105146 0.0663367
0.481462 -0.0892911 0.0590944
0.514203 -0.101449 0.0653577
0.499305 -0.0985492 0.0450071
0.513415 -0.108738 0.0422348
0.508887 -0.115136 0.0657341
0.519531 -0.0869841 0.0662915
0.496823 -0.0822035 0.0636542
0.480686 -0.114773 0.0629125
0.473465 -0.0449862 0.0617509
0.460633 -0.0748781 0.0455572
0.460068 -0.0753097 0.0768718
0.453288 -0.0634106 0.0717548
0.477443 -0.0692937 0.0624675
0.448701 -0.0685292 0.0559606
0.446597 -0.0543794 0.0596644
0.469578 -0.0602137 0.0435077
0.451886 -0.0480974 0.0453751
0.454399 -0.0616463 0.0435622
0.452562 -0.0459422 0.0723026
0.481355 -0.0644841 0.0450599
0.488321 -0.0404185 0.0428985
0.485715 -0.0543536 0.0670986
0.518707 -0.07029 0.0657773
0.487021 -0.0790198 0.0434892
0.506788 -0.0605204 0.047326
0.505809 -0.0429344 0.0439825
0.502255 -0.0753595 0.0467968
0.493774 -0.0547369 0.0431809
0.498273 -0.0424593 0.0669255
0.517743 -0.0551662 0.066096
0.507581 -0.0622924 0.0748576
0.49373 -0.0681929 0.0699787
0.477716 -0.117647 0.0836879
0.470054 -0.105045 0.0907208
0.473763 -0.0902202 0.0875749
0.520933 -0.101199 0.0881771
0.509928 -0.0877139 0.0803915
0.511358 -0.118057 0.0904471
0.497934 -0.104804 0.0871725
0.489415 -0.0957026 0.0795448
0.478794 -0.105296 0.104911
0.48858 -0.0937554 0.105307
0.504706 -0.117995 0.104192
0.51433 -0.100567 0.103313
0.522336 -0.0872713 0.106965
0.464651 -0.0481847 0.082834
0.475295 -0.0411063 0.091469
0.473511 -0.0741688 0.0831388
0.466878 -0.0619412 0.0816115
0.486479 -0.0814259 0.091901
0.503026 -0.0779006 0.091432
0.516171 -0.0489214 0.0897246
0.50077 -0.0641944 0.105311
0.491106 -0.065253 0.0929464
0.500574 -0.0498307 0.0971332
0.485075 -0.0522242 0.0897931
0.52591 -0.0404076 0.102072
0.451935 -0.0256866 0.0515285
0.446753 -0.0392275 0.0565022
0.465842 -0.0170001 0.0743707
0.458705 -0.0332058 0.0789338
0.474719 -0.0378817 0.0469929
0.460581 -0.0160958 0.0468938
0.460052 -0.0376239 0.0426594
0.451225 -0.0294337 0.0665131
0.45783 -0.0147019 0.0613705
0.475365 -0.0211823 0.0434752
0.466461 -0.00693033 0.0491518
0.506662 -0.0144045 0.0442351
0.484063 -0.035055 0.0698264
0.514681 -0.0202211 0.0647435
0.499242 -0.0289759 0.0458358
0.494074 -0.00154449 0.0645524
0.497354 -0.0181322 0.0657452
0.514878 -0.0372585 0.0648049
0.490035 -0.0163621 0.0441176
0.485655 -0.00146171 0.0446548
0.480629 -0.0206355 0.0656642
0.471533 0.00508814 0.0532034
0.469167 0.00299481 0.066813
0.469202 0.0151006 0.0739526
0.472944 0.0239177 0.0635225
0.488629 0.0178381 0.0705711
0.507258 0.0304147 0.0438859
0.489999 0.0279382 0.045154
0.478069 0.0208571 0.052692
0.502643 0.00212064 0.0435972
0.482439 0.0358862 0.0701115
0.50525 0.0319591 0.0664615
0.48755 0.0135246 0.0432509
0.509833 0.00201941 0.0643462
0.50557 0.016718 0.0460043
0.51584 0.0164071 0.0662025
0.468104 -0.0270816 0.0879443
0.475573 -0.0130034 0.0882023
0.493486 -0.00929118 0.0880607
0.486475 -0.00863135 0.108511
0.511502 -0.028583 0.100766
0.50788 -0.0377552 0.0795411
0.498674 -0.023588 0.0856442
0.495218 -0.0228224 0.109851
0.520709 0.000465534 0.0861196
0.517622 -0.0179168 0.0848752
0.479925 -0.02588 0.0964854
0.489977 -0.0373941 0.0970175
0.523584 -0.00969325 0.105182
0.464381 0.0401709 0.0997155
0.465588 0.0324356 0.086533
0.47281 0.0122331 0.100053
0.477206 0.0380772 0.107618
0.468217 0.0185364 0.0877352
0.466235 0.02525 0.10166
0.478269 0.000528724 0.0810922
0.510686 0.0351214 0.0899717
0.503062 -0.00102258 0.0794075
0.519782 0.024058 0.0816308
0.495865 0.0135132 0.0933623
0.501613 0.0237439 0.107598
0.51324 0.0179207 0.100466
0.491666 0.0334037 0.105927
0.48055 0.00222585 0.104075
0.500744 0.0223533 0.0804155
0.520199 0.00478605 0.100512
0.510493 0.0111732 0.112644
0.494118 -0.0840667 0.113627
0.485658 -0.111396 0.117502
0.513985 -0.0963767 0.11886
0.49609 -0.0984061 0.120363
0.506371 -0.109461 0.115279
0.50431 -0.0848754 0.12537
0.503583 -0.0563365 0.119632
0.515851 -0.057613 0.128875
0.503835 -0.043413 0.118083
0.499634 -0.0714385 0.119077
0.51339 -0.0725644 0.128325
0.495249 -0.0109386 0.118209
0.506509 -0.033457 0.124915
0.503902 -0.0195091 0.122801
0.479091 0.0234805 0.111471
0.497449 0.0023311 0.11737
0.488838 0.0131869 0.114243
0.518577 -0.000132556 0.113673
0.525014 -0.0796385 0.0434006
0.54236 -0.096706 0.0775011
0.536102 -0.114231 0.0588378
0.52968 -0.108277 0.0495997
0.54292 -0.0965812 0.0628071
0.537928 -0.116742 0.0716294
0.537764 -0.090686 0.0513454
0.524505 -0.0951967 0.0440685
0.545031 -0.0840018 0.0749359
0.545284 -0.0794063 0.0611635
0.539872 -0.0731632 0.0509546
0.531033 -0.0656183 0.0450283
0.54253 -0.0478779 0.0705734
0.521132 -0.0572391 0.043041
0.542919 -0.0627156 0.0625958
0.531939 -0.0454358 0.0472861
0.54069 -0.0490165 0.0566221
0.527062 -0.119068 0.0838794
0.533202 -0.0867838 0.0872859
0.534954 -0.107121 0.0819668
0.53003 -0.0585646 0.108491
0.528113 -0.0748821 0.109288
0.518927 -0.0741102 0.0892242
0.529791 -0.0597208 0.0941735
0.538537 -0.0609731 0.0789263
0.53774 -0.0750236 0.0830572
0.533814 -0.0461326 0.0855472
0.521224 -0.0361628 0.0428867
0.536631 -0.0070247 0.0656826
0.531123 -0.00971667 0.078647
0.522906 -0.0209256 0.0440616
0.535484 -0.000679484 0.0502283
0.536026 -0.0342188 0.0784824
0.520286 -0.00456509 0.0443562
0.532496 -0.0231285 0.0784178
0.539872 -0.032738 0.0648308
0.534817 -0.0144235 0.0534545
0.534532 -0.029756 0.0513954
0.540697 0.0140276 0.0651938
0.523392 0.0111713 0.0446521
0.544951 0.0253166 0.0535871
0.537397 0.0369676 0.0446248
0.530468 0.0323099 0.0784225
0.530863 0.00609497 0.0737341
0.52177 0.0353569 0.0552732
0.541123 0.0258296 0.0698259
0.539709 0.0122142 0.0496705
0.531224 0.0241927 0.0427464
0.522648 -0.083012 0.121086
0.528795 -0.0516082 0.121565
0.518191 -0.0417163 0.128715
0.528197 -0.0672613 0.121508
0.526412 -0.0231366 0.108594
0.518806 -0.0126714 0.119966
0.529486 -0.0370615 0.115888
0.522846 -0.0270391 0.123973
0.398803 -0.225626 0.106654
0.391093 -0.236333 0.109146
0.399232 -0.232554 0.122661
0.407682 -0.221369 0.119458
0.384814 -0.20663 0.112829
0.379743 -0.21338 0.123562
0.390087 -0.222264 0.131985
0.399554 -0.212747 0.129033
-0.0469044 0.0452043 0.0525262
-0.0416313 0.0672056 0.0581659
-0.0359247 0.043302 0.0675968
-0.0407094 0.0550316 0.0636934
-0.0400606 0.0572171 0.0468797
-0.0383814 0.0788543 0.0520515
-0.0109957 0.0696514 0.0793496
-0.0320397 0.0434162 0.0422882
-0.0250158 0.0598148 0.0432952
-0.026332 0.075993 0.0431797
-0.0306709 0.0724858 0.067731
-0.0161254 0.0423871 0.062292
-0.019595 0.0631076 0.0685561
-0.00460178 0.0470182 0.0410544
-0.00576371 0.0426298 0.0763855
-0.0107269 0.0590257 0.0440054
-0.00874855 0.0565165 0.0784516
-0.00287912 0.0735863 0.0428655
0.0295075 0.074775 0.0441305
0.00476454 0.0662692 0.0793959
0.00576287 0.0510109 0.0760266
0.0225807 0.062145 0.043769
0.032019 0.0574269 0.0604924
0.00939041 0.0652625 0.0441171
0.0238618 0.0662056 0.0717449
0.00225383 0.054275 0.0549953
0.0116167 0.0746628 0.0639034
0.0287336 0.0439331 0.0633039
0.0278653 0.049566 0.0466348
0.0186723 0.05201 0.0706538
-0.0293223 0.102048 0.057055
-0.0193146 0.0981664 0.0435351
-0.0235042 0.0929263 0.0714034
-0.0215045 0.109324 0.0679233
-0.0140339 0.0826995 0.0779596
-0.019353 0.110712 0.0511313
-0.0311045 0.0899987 0.0470409
-0.00827893 0.0785673 0.0581157
-0.00734807 0.0888922 0.0438339
-0.00836839 0.116066 0.0462586
-0.0339394 0.0875836 0.0635328
0.0111647 0.10967 0.0637714
0.0352234 0.0763224 0.0749004
0.022462 0.1184 0.0655196
0.00568311 0.109702 0.0423199
0.0368256 0.088821 0.0428766
0.0061721 0.0936192 0.0439432
0.0298247 0.117321 0.0455234
0.00105903 0.0978617 0.0637083
0.0165995 0.092395 0.0650016
0.0185083 0.0865173 0.0431136
0.0257508 0.102268 0.0441445
0.0320364 0.0926331 0.0659958
0.0281748 0.11049 0.0763411
-0.00562811 0.0914063 0.0836394
-0.0120405 0.107714 0.0787089
-0.00139625 0.115128 0.0845938
0.00807101 0.0823645 0.0832411
0.00365002 0.0986831 0.0902581
0.0349244 0.0858749 0.0871839
0.0223135 0.115326 0.0984896
0.00869955 0.113689 0.0935046
0.0208674 0.0860763 0.0862504
0.0315433 0.101428 0.0984587
0.0359077 0.11796 0.0996524
0.0172142 0.0992412 0.0957336
-0.0126537 0.120566 0.0688279
-0.00779799 0.128452 0.058611
0.00918918 0.147054 0.0482694
0.0164606 0.123442 0.0434424
0.0102627 0.146611 0.0764027
-0.000122064 0.127741 0.0738947
0.000763175 0.126543 0.0443918
-9.45857e-05 0.138934 0.0537405
0.025847 0.133511 0.0630046
0.0198643 0.140608 0.0422042
0.0345461 0.143654 0.0444619
0.017611 0.157174 0.071335
0.0167767 0.156852 0.0532183
0.00585397 0.149858 0.0624858
0.029758 0.164002 0.075151
0.0361552 0.178048 0.0728083
0.0378676 0.174155 0.0487533
0.0290907 0.161514 0.0490343
0.0290612 0.173366 0.0606764
0.0180236 0.126387 0.0901107
0.0229806 0.144877 0.0818593
0.0106807 0.135015 0.0824791
0.0362892 0.13607 0.0818414
0.0387767 -0.172422 0.0505279
0.0301743 -0.162901 0.0546338
0.0368021 -0.167686 0.0642373
0.0372158 -0.137694 0.0427085
0.0181687 -0.123458 0.0794603
0.02407 -0.14052 0.0546125
0.0272449 -0.126565 0.0447603
0.00735101 -0.122176 0.0706367
0.0288112 -0.13397 0.0758551
0.0126016 -0.12328 0.0503166
0.0174434 -0.132393 0.0654814
0.0309043 -0.151637 0.0472033
0.0312907 -0.152055 0.064488
0.0321168 -0.121009 0.0864419
-0.0402055 -0.0563713 0.0491256
-0.0456502 -0.0428006 0.0506214
-0.0437905 -0.0497183 0.0662685
-0.0411332 -0.062249 0.0645813
-0.000153973 -0.119409 0.0571994
-0.0168559 -0.101457 0.0702417
-0.028175 -0.0817809 0.0494865
-0.0152163 -0.0845533 0.0740042
-0.017481 -0.100763 0.0534883
-0.0114415 -0.111659 0.0598465
-0.00754962 -0.0975229 0.0476189
-0.0261814 -0.0925468 0.0607937
-0.00280771 -0.110448 0.0739567
-0.0059913 -0.0955149 0.0786999
-0.0287212 -0.0802992 0.0690249
0.0374423 -0.112919 0.0459043
0.0215387 -0.1114 0.0430299
0.014799 -0.0998123 0.0631166
0.035856 -0.11731 0.0638869
0.0394897 -0.0985818 0.0568855
0.00389274 -0.0954966 0.042222
0.0114773 -0.0799982 0.0432794
0.0208588 -0.0949197 0.0446534
0.0182616 -0.0841738 0.0646581
0.0331749 -0.0864768 0.0442063
0.00403623 -0.111123 0.045583
0.0334286 -0.0934622 0.0767861
-0.0347765 -0.0440867 0.0423002
-0.0179183 -0.0448914 0.0624595
-0.0178876 -0.0754533 0.0449105
-0.0312307 -0.0679891 0.0458566
-0.0186644 -0.0480235 0.0433124
-0.0380297 -0.0744507 0.0584862
-0.0299824 -0.0450359 0.0766012
-0.00482564 -0.0728208 0.0794774
-0.010123 -0.0611724 0.041878
-0.0199422 -0.0548632 0.0790614
-0.00353181 -0.0740605 0.0473127
-0.00802179 -0.0602985 0.0652648
-0.0286053 -0.0662892 0.0722591
-0.00296095 -0.0458614 0.0434528
0.00448062 -0.0420757 0.0561826
0.0269971 -0.043649 0.0657065
0.026363 -0.0701533 0.0458255
0.00990173 -0.0636408 0.0459205
0.0220321 -0.0543393 0.042953
0.0308781 -0.0647824 0.0628098
0.00403869 -0.0781421 0.0633802
0.01316 -0.0545629 0.0648037
0.0349264 -0.0440133 0.0440817
0.016644 -0.0402705 0.0426301
0.00928591 -0.0811761 0.0837932
0.0156929 -0.106724 0.0825174
0.0277182 -0.104196 0.0846034
0.00705702 -0.0956332 0.0823651
-0.0091645 -0.0429633 0.0829754
-0.00431464 -0.0568703 0.083554
0.0230341 -0.0758566 0.0816187
0.0111651 -0.0507445 0.081496
0.0371328 -0.0579743 0.0837612
0.0229667 -0.0588844 0.084125
0.00965458 -0.0660555 0.0861184
-0.0424183 -0.0227117 0.0694183
-0.0460049 -0.00604879 0.0440989
-0.0504042 -0.0146075 0.058416
-0.0515332 -0.00117445 0.0560632
-0.0416905 -0.0195969 0.0436573
-0.0483796 -0.0286087 0.0520361
-0.0466522 -0.0360096 0.0658807
-0.0440738 0.00892119 0.0649143
-0.0394614 0.0180004 0.0427476
-0.0437233 0.0318033 0.0465182
-0.0492222 0.0211468 0.058087
-0.0467688 0.0340504 0.0635622
-0.0487942 0.00831221 0.0476645
-0.0327555 -0.0315713 0.0761368
-0.0244827 -0.00481672 0.0460625
-0.0249182 -0.0188345 0.0447805
-0.014841 -0.0233693 0.0577355
-0.00641513 -0.0101702 0.0623517
-0.023705 -0.0317374 0.0433968
-0.0225375 -0.0223657 0.0804519
-0.0222195 -0.00669087 0.0762128
-0.0356165 -0.00936208 0.0695213
-0.00835723 -0.0159168 0.0806106
-0.0038038 -0.0290214 0.0450924
-0.0108976 -0.000856795 0.0430127
0.00219619 -0.00503145 0.0787931
0.0288208 -0.00391674 0.0794444
0.0343401 -0.0292764 0.0458194
0.00132114 -0.0313627 0.0753801
0.00354559 -0.0186798 0.0424732
0.0261168 -0.00530783 0.0455877
0.0188049 -0.0239918 0.0424297
0.0186845 -0.0312275 0.0778488
0.0121811 -0.0215654 0.0637464
0.00478496 -0.00441454 0.0426723
0.0271641 -0.0189543 0.058134
0.0163699 -0.0135913 0.0802802
-0.00755348 0.0123533 0.0559688
-0.000405311 0.0263032 0.076002
-0.0305615 0.00642722 0.0707993
-0.0236894 0.0207209 0.0722936
-0.0165003 0.0082172 0.0751918
-0.016295 0.0196997 0.0426531
-0.0140612 0.030982 0.0742215
-0.0216027 0.0327699 0.0482838
-0.00624681 0.0318757 0.0431594
-0.00121974 0.0103706 0.0783994
-0.0355372 0.0283267 0.0694782
-0.0268487 0.00880525 0.0443207
0.00844545 0.0304381 0.0635014
0.0119696 0.0181184 0.0749664
0.0133503 0.00230895 0.0561089
0.0253337 0.0308825 0.0632604
0.0384235 0.0035042 0.0705169
0.0155144 0.0394193 0.0417223
0.0258278 0.0116032 0.0722132
0.0146415 0.00402798 0.0803812
0.00561663 0.0121025 0.0443263
0.0295599 0.023202 0.0479766
0.0376587 0.0144241 0.058367
0.0297871 0.0362748 0.0482821
0.0262054 0.0102671 0.0436311
0.00802915 0.0253716 0.0418178
-0.0121404 -0.0307445 0.0829926
0.0322912 -0.0373118 0.0815004
0.0310597 -0.0208975 0.0822505
-0.00334961 -0.00335118 0.541334
0.00335124 -0.003351 0.541334
-0.00334969 0.00334975 0.541334
0.00335115 0.00334975 0.541334
0.381414 -0.246873 0.112192
0.371517 -0.221535 0.115946
0.389574 -0.242145 0.123906
0.376045 -0.224187 0.131054
0.370475 -0.254517 0.116198
0.362629 -0.230751 0.112059
0.377795 -0.248163 0.1288
0.370629 -0.235912 0.133404
0.35734 -0.259054 0.115782
0.351553 -0.234752 0.11586
0.363053 -0.254903 0.129654
0.357373 -0.23969 0.132046
0.343401 -0.261849 0.113899
0.339513 -0.239946 0.111845
0.347927 -0.25878 0.128317
0.343895 -0.241799 0.129007
0.328695 -0.262879 0.110305
0.325692 -0.243458 0.109172
0.333069 -0.261491 0.125482
0.329878 -0.244839 0.126037
0.312889 -0.264222 0.108131
0.310603 -0.245648 0.10719
0.318386 -0.263887 0.122344
0.315801 -0.246503 0.122961
0.296683 -0.265524 0.107003
0.295119 -0.248338 0.105599
0.30322 -0.265531 0.120543
0.30121 -0.248425 0.12124
0.280199 -0.266754 0.106649
0.279121 -0.249935 0.105183
0.287681 -0.267192 0.119386
0.286297 -0.249623 0.12006
0.263523 -0.26805 0.108679
0.262711 -0.251429 0.106681
0.272209 -0.268202 0.120075
0.271496 -0.250338 0.120443
0.246799 -0.268269 0.112496
0.246667 -0.252442 0.109851
0.256561 -0.268531 0.122836
0.256718 -0.250292 0.122669
0.230645 -0.26694 0.11786
0.231024 -0.251561 0.114913
0.241358 -0.267651 0.127336
0.242461 -0.24902 0.126176
0.215617 -0.264126 0.124846
0.21619 -0.248532 0.121972
0.227145 -0.265361 0.133521
0.228987 -0.246318 0.13108
0.202428 -0.260263 0.133272
0.203005 -0.24419 0.130785
0.214734 -0.261522 0.141533
0.216792 -0.24276 0.138093
0.190965 -0.255894 0.142844
0.191264 -0.23919 0.141407
0.203672 -0.257074 0.150867
0.205747 -0.238307 0.146645
