0.0577986 0.059896 0.0436688
0.0428625 0.0767178 0.0526692
0.064401 0.108848 0.0458834
0.0456475 0.100341 0.05262
0.061783 0.0847572 0.044798
0.0671522 0.158754 0.0472796
0.0665508 0.133687 0.0464561
0.0477691 0.124314 0.0520006
0.0490184 0.148372 0.0514288
0.0489772 0.172554 0.0509654
0.066296 0.183731 0.0477631
0.0481776 0.197219 0.0503475
0.0907061 0.190809 0.0698927
0.119905 0.199117 0.0689527
0.111305 0.182076 0.0630318
0.114028 0.197622 0.0878224
0.0841821 0.190325 0.0897559
0.104566 0.181128 0.0825773
0.175352 0.155711 0.0433608
0.18747 0.147338 0.0551445
0.166751 0.155785 0.0616452
0.195389 0.147379 0.0365447
0.146051 0.164154 0.0679403
0.132218 0.173598 0.0567293
0.153111 0.164935 0.0511313
0.14021 0.191091 0.0617415
0.125244 0.172495 0.0750421
0.154512 0.181701 0.0727677
0.174675 0.173777 0.0659783
0.18196 0.1744 0.048038
0.160607 0.183197 0.0553233
0.194853 0.165718 0.0590465
0.13421 0.189536 0.0802094
0.272174 0.115022 0.0509836
0.313266 0.103239 0.0530428
0.292612 0.108715 0.0518326
0.336516 0.117689 0.0522947
0.355142 0.0938175 0.0554887
0.356669 0.112975 0.0526858
0.333986 0.0983107 0.0542221
0.323626 0.100317 0.0366679
0.344056 0.0954427 0.0375515
0.229487 0.130297 0.0500095
0.208166 0.138839 0.0511626
0.235468 0.150166 0.0514614
0.215105 0.157868 0.0538717
0.222941 0.157931 0.036113
0.276832 0.135047 0.0508631
0.256234 0.142311 0.0505991
0.251114 0.122155 0.0501519
0.201727 0.166034 0.040393
0.31637 0.12298 0.0520473
0.296601 0.128602 0.0514021
0.0613646 0.234104 0.0486823
0.0456559 0.221722 0.0496686
0.0643248 0.209046 0.0481454
0.0417251 0.245959 0.049122
0.057358 0.258541 0.0495059
0.0398206 0.235486 0.0942457
0.0597207 0.225384 0.089182
0.0408654 0.210361 0.102196
0.0525664 0.224695 0.107739
0.0700937 0.199733 0.0771509
0.049039 0.20965 0.0828875
0.073578 0.215246 0.101633
0.0626246 0.19996 0.0965154
0.0800065 0.216122 0.0830138
0.0942098 0.206293 0.0947808
0.0999323 0.207496 0.0760544
0.0524488 0.282718 0.0511863
0.0463564 0.306822 0.0531792
0.0450805 0.356981 0.0458843
0.0523018 0.332651 0.0380461
0.293841 0.353626 0.0376152
0.376689 0.0899702 0.0569468
0.385573 0.107387 0.0366956
0.377107 0.108959 0.0533696
0.398109 0.105098 0.0541058
0.365236 0.0909674 0.0386616
0.398689 0.0863666 0.0584466
0.386797 0.0875299 0.0400576
0.409052 0.0846392 0.041888
0.431371 0.0822757 0.0448644
0.420868 0.0831561 0.0609084
0.428489 0.100815 0.0399632
0.419306 0.101707 0.0562951
0.406793 0.103585 0.0371664
0.453669 0.080324 0.0488134
0.465783 0.0774521 0.0679234
0.476572 0.0779322 0.0524787
0.488704 0.0741467 0.0718638
0.499696 0.0753831 0.0560549
0.450343 0.0987859 0.0438114
0.4626 0.095848 0.0640134
0.440673 0.0989116 0.0599172
0.472724 0.0967322 0.0481811
0.44302 0.0804938 0.0643677
0.518257 0.0919171 0.0591576
0.484894 0.0925904 0.0687867
0.49548 0.0944297 0.05321
0.507216 0.0891422 0.0744458
0.51149 0.0706516 0.0765726
0.52258 0.072857 0.0604239
0.54571 0.0691324 0.0652807
0.562713 0.0405352 0.0476533
0.568605 0.0638708 0.0706883
0.585154 0.0463527 0.0487344
0.541535 0.0881499 0.0654734
0.582665 0.11917 0.0449328
0.564869 0.0829101 0.0721465
0.557373 0.0599293 0.0868385
0.534515 0.0659385 0.0815134
0.553049 0.0787358 0.0870283
0.57588 0.0715871 0.093858
0.590875 0.0572039 0.0765498
0.57984 0.0527058 0.0926679
0.587933 0.076189 0.0791415
0.599071 0.062019 0.100024
0.530057 0.0845817 0.0805458
0.607198 0.0501826 0.0505022
0.630738 0.0530052 0.0514694
0.645839 0.0411395 0.0552669
0.670497 0.048536 0.0533517
0.678621 0.0684637 0.0496817
0.654812 0.0598707 0.049736
0.639623 0.106418 0.0715395
0.617289 0.110853 0.042147
0.622401 0.117405 0.060134
0.637816 0.118825 0.0527621
0.621163 0.0968206 0.0603081
0.637928 0.0979273 0.0526795
0.601916 0.108282 0.0521818
0.676508 0.0824145 0.0724563
0.640535 0.0860963 0.0707582
0.65732 0.0896868 0.0611341
0.65576 0.109112 0.0632052
0.622188 0.0499357 0.104742
0.61107 0.0669001 0.0851942
0.612797 0.0480128 0.0811978
0.633725 0.0549992 0.0894015
0.60217 0.0430432 0.0974498
0.655678 0.0409558 0.0922107
0.66034 0.0760253 0.0824744
0.657165 0.0960781 0.0847622
0.676676 0.0843507 0.0972609
0.673443 0.101129 0.0770846
0.573111 0.154713 0.0387981
0.564648 0.13337 0.0389311
0.589599 0.141842 0.0449443
0.606598 0.129272 0.0516814
0.620915 0.129444 0.0391629
0.193791 0.433437 0.0440794
0.0795312 0.480451 0.0374404
0.100576 0.481592 0.0406048
0.141669 0.472174 0.0440312
0.121251 0.479079 0.0429246
0.160705 0.462222 0.0444149
0.178181 0.449606 0.0449795
0.181577 0.470184 0.0399513
0.141301 0.490768 0.0380965
0.161868 0.481271 0.0382951
0.263564 0.38991 0.0456425
0.243785 0.385777 0.0382583
0.280371 0.372141 0.0428467
0.208667 0.415346 0.040993
0.233503 0.427274 0.0458844
0.223563 0.402395 0.0402527
0.249318 0.40872 0.0471138
0.217666 0.442433 0.0428874
0.200223 0.456944 0.0415018
0.717726 0.0672985 0.0562447
0.694887 0.0571156 0.0533948
0.700261 0.0778886 0.0529234
0.72445 0.0656911 0.0371427
0.719645 0.0881388 0.0605918
0.737018 0.101294 0.0710375
0.742983 0.102381 0.0516729
0.743651 0.0811913 0.0457926
0.727047 0.0874969 0.0418716
0.755634 0.119518 0.0595742
0.738711 0.080872 0.064542
0.698353 0.0710144 0.106462
0.714088 0.0795859 0.0993814
0.696643 0.0744092 0.0820322
0.681444 0.0652081 0.0916301
0.702742 0.0533767 0.0970033
0.717168 0.0641202 0.0876532
0.736578 0.0503758 0.0889612
0.757526 0.0453656 0.0994665
0.736363 0.0644157 0.102902
0.720774 0.0561339 0.111147
0.692708 0.0916828 0.0902548
0.757335 0.100361 0.0751892
0.761788 0.0987796 0.0563914
0.736325 0.158949 0.0378113
0.760223 0.15689 0.0565798
0.73681 0.178174 0.0514813
0.757098 0.183239 0.0562991
0.750197 0.165286 0.0470726
0.749332 0.168267 0.0685281
0.749921 0.120688 0.0791442
0.754198 0.145303 0.0793749
0.761606 0.13904 0.0615295
0.774749 0.121953 0.0648427
0.778426 0.149264 0.064214
0.771765 0.171732 0.050844
0.768944 0.128632 0.0818996
0.768877 0.160079 0.0766712
0.0585607 -0.450725 0.0877837
0.0890921 -0.44425 0.0861359
0.0816762 -0.46162 0.0795747
0.101167 -0.45408 0.0975666
0.110553 -0.449011 0.0786596
0.0949074 -0.47126 0.0894473
0.106833 -0.467526 0.0721635
0.159188 -0.462809 0.0597407
0.184007 -0.453012 0.0558477
0.198922 -0.45307 0.0683565
0.147895 -0.453498 0.084042
0.148821 -0.471961 0.0764897
0.133004 -0.448932 0.0717139
0.133115 -0.467914 0.0655342
0.124276 -0.456182 0.090214
0.121542 -0.474382 0.0823746
0.155652 -0.444169 0.0659421
0.170465 -0.446507 0.0790119
0.174578 -0.464542 0.0716755
0.0699901 -0.462594 0.0976128
0.0473729 -0.447868 0.105737
0.0792871 -0.4468 0.105686
0.0418805 -0.415803 0.0492748
0.0724638 -0.404654 0.0519377
0.053931 -0.425445 0.0561503
0.0694339 -0.423257 0.0421096
0.0588468 -0.408748 0.0659757
0.107855 -0.431957 0.0432694
0.0812881 -0.431402 0.0490112
0.11851 -0.402175 0.0426798
0.0960152 -0.406351 0.0474104
0.108395 -0.415479 0.0566242
0.0835531 -0.415296 0.0611856
0.0499971 -0.397489 0.0552287
0.156841 -0.402145 0.051299
0.135599 -0.428135 0.0384678
0.133114 -0.410867 0.0534585
0.177653 -0.435181 0.0622485
0.198098 -0.422633 0.060305
0.140099 -0.393759 0.0396233
0.160354 -0.382269 0.0374184
0.178819 -0.390234 0.0495919
0.179583 -0.368652 0.0363951
0.192159 -0.436048 0.0758442
0.197456 -0.353165 0.0363341
0.0428755 -0.414947 0.119469
0.059294 -0.433536 0.113212
0.0518845 -0.420917 0.100165
0.0377875 -0.402875 0.104628
0.0380569 -0.434598 0.0953583
0.0693784 -0.43501 0.0938356
0.0293779 -0.384744 0.106643
0.0316024 -0.393301 0.12309
0.240455 -0.422402 0.0640893
0.230923 -0.407862 0.0729005
0.226167 -0.423153 0.0511451
0.216493 -0.407659 0.0594467
0.220971 -0.438605 0.0660893
0.206547 -0.439301 0.0531322
0.243684 -0.405427 0.050113
0.25824 -0.405164 0.062637
0.200073 -0.376305 0.0483248
0.233582 -0.391028 0.0599202
0.220344 -0.360638 0.0471307
0.273208 -0.368974 0.0487897
0.2651 -0.375225 0.0723758
0.259244 -0.387111 0.0495505
0.248529 -0.391787 0.0725457
0.249485 -0.37362 0.0609922
0.274366 -0.387674 0.0612148
0.212347 -0.42282 0.0741087
0.288954 -0.370508 0.0593137
0.238782 -0.343385 0.045571
0.214321 -0.336231 0.0371679
0.279078 -0.33877 0.0623711
0.264408 -0.356116 0.0617127
0.256113 -0.324796 0.0436009
0.231505 -0.318819 0.0387026
0.271737 -0.30536 0.0414738
0.249198 -0.301036 0.0400064
0.265641 -0.282814 0.0402472
0.31644 -0.337457 0.0557438
0.302904 -0.353761 0.0575069
0.310544 -0.326713 0.0699171
0.295708 -0.342614 0.0707987
0.280583 -0.358762 0.0716243
0.28651 -0.351254 0.0482611
0.29941 -0.334081 0.0476046
0.293548 -0.321797 0.0625692
0.329717 -0.321609 0.0537609
0.31219 -0.317293 0.0467313
0.285994 -0.286056 0.0397384
0.307953 -0.305173 0.0622414
0.342418 -0.294202 0.0675992
0.34444 -0.30542 0.0523703
0.342187 -0.283021 0.0455263
0.326243 -0.300292 0.0461719
0.323579 -0.288313 0.0620405
0.325538 -0.310596 0.0686938
0.360399 -0.289447 0.0509008
0.281094 -0.264171 0.0411202
0.300548 -0.266929 0.0395429
0.315359 -0.248364 0.0400582
0.296178 -0.245251 0.0430267
0.358868 -0.266505 0.0445498
0.359447 -0.255025 0.060858
0.341147 -0.271203 0.0616533
0.310846 -0.226305 0.0454777
0.346425 -0.213083 0.0424139
0.326391 -0.20766 0.0482908
0.330304 -0.230346 0.0411543
0.342689 -0.189544 0.0506133
0.359139 -0.172028 0.0520546
0.0477214 0.0120773 0.043513
0.0530429 0.0353955 0.0435575
0.397404 -0.249956 0.0637149
0.360173 -0.278646 0.0663677
0.376887 -0.274264 0.0489729
0.378301 -0.263843 0.0648221
0.376996 -0.250729 0.0438951
0.39463 -0.2598 0.0476732
0.413152 -0.246216 0.046694
0.379051 -0.239626 0.0603237
0.399454 -0.225315 0.0598595
0.396095 -0.23595 0.0433289
0.420058 -0.212025 0.0590812
0.415553 -0.222193 0.0425438
0.436985 -0.225039 0.0615198
0.431978 -0.233533 0.0454514
0.417088 -0.237049 0.0627796
0.43595 -0.209341 0.0420591
0.457719 -0.214072 0.0605267
0.451652 -0.221725 0.0444952
0.471552 -0.210856 0.0429412
0.478554 -0.204168 0.0590078
0.492318 -0.200639 0.0417644
0.396739 -0.16561 0.041716
0.379442 -0.180494 0.0427792
0.363016 -0.196567 0.0430016
0.382185 -0.13953 0.0442036
0.365637 -0.156027 0.0404449
0.399181 -0.123508 0.0464771
0.376518 -0.156009 0.0532233
0.395063 -0.14112 0.0545141
0.414386 -0.151456 0.040031
0.431594 -0.137636 0.0380161
0.413737 -0.127151 0.0552704
0.456618 -0.197453 0.0413046
0.463451 -0.188837 0.0579202
0.441694 -0.1999 0.0586904
0.478171 -0.186391 0.0408209
0.499948 -0.195467 0.0580834
0.508336 -0.170827 0.0590243
0.485931 -0.179132 0.0577127
0.51378 -0.191127 0.0413926
0.500526 -0.176139 0.0409839
0.449129 -0.125061 0.0361082
0.543077 -0.181281 0.0594352
0.521533 -0.188035 0.0582896
0.535214 -0.182125 0.0421939
0.530564 -0.163812 0.0621635
0.522797 -0.166545 0.0435212
0.556984 -0.173664 0.0448122
0.564964 -0.175804 0.061784
0.578548 -0.166114 0.04847
0.586796 -0.170982 0.0646687
0.545157 -0.157918 0.0480272
0.553064 -0.158494 0.0669887
0.599508 -0.159121 0.0523921
0.56719 -0.150665 0.0539572
0.588492 -0.144509 0.060358
0.575291 -0.154594 0.0725444
0.59699 -0.151286 0.0779295
0.629358 -0.161636 0.0705119
0.608183 -0.166243 0.0674111
0.620145 -0.152458 0.0572337
0.639761 -0.14599 0.061965
0.609274 -0.139247 0.0675646
0.658125 -0.138433 0.0659176
0.676089 -0.129062 0.0698147
0.650079 -0.155995 0.0733232
0.639544 -0.14579 0.0881601
0.629048 -0.134689 0.0745862
0.618453 -0.148922 0.0833725
0.665942 -0.122159 0.0857706
0.647703 -0.129254 0.0804958
0.660283 -0.140241 0.0919862
0.670297 -0.147793 0.0759211
0.433721 -0.114816 0.0555282
0.43704 -0.0951467 0.0487364
0.417555 -0.108638 0.0478321
0.474331 -0.095533 0.0543732
0.457142 -0.0836348 0.0493444
0.454337 -0.104126 0.055229
0.513982 -0.0865868 0.0528136
0.494334 -0.0895541 0.0533152
0.479196 -0.075301 0.0494755
0.50126 -0.0706399 0.0494537
0.507982 0.00837198 0.0469816
0.551278 -0.0894511 0.0523829
0.53261 -0.0865698 0.0527315
0.58684 -0.0995892 0.0500105
0.569201 -0.0945067 0.0514928
0.522158 -0.0690373 0.0499934
0.542851 -0.0703143 0.0506594
0.581654 -0.0788088 0.0512411
0.563266 -0.0740811 0.0510956
0.607308 -0.105125 0.0471531
0.629598 -0.109726 0.0441349
0.600784 -0.0835959 0.0510135
0.622146 -0.0872116 0.0507173
0.652254 -0.112247 0.0414139
0.675233 -0.112462 0.0395138
0.664266 -0.0911941 0.0510143
0.643161 -0.0895337 0.0507151
0.522496 -0.0075406 0.0404803
0.530543 0.0176442 0.051899
0.522551 0.0128764 0.0394667
0.552216 0.0263791 0.0546606
0.540916 0.0324779 0.0459517
0.542848 9.0539e-05 0.044468
0.597821 0.0354643 0.0580338
0.586067 0.00848049 0.0476193
0.59304 0.0220516 0.0433643
0.575474 0.0319987 0.0566788
0.564001 0.0042651 0.046891
0.57616 0.00923208 0.0386737
0.621123 0.0357314 0.0571552
0.627403 0.0169835 0.0410382
0.620101 0.024997 0.0392114
0.607765 0.0117118 0.0468263
0.651437 0.0251205 0.0366951
0.677021 -0.0182242 0.101681
0.634216 0.0364663 0.083831
0.623836 0.0310385 0.100204
0.676422 0.0233593 0.0934063
0.644241 0.0358597 0.107725
0.673367 0.00588676 0.0857836
0.662374 0.000857675 0.101957
0.644256 0.0172967 0.101689
0.664942 0.018825 0.109116
0.654787 0.0229082 0.0853798
0.680617 -0.127541 0.0972322
0.69096 -0.132543 0.0808882
0.684916 -0.0906993 0.0515393
0.697878 -0.109362 0.0396942
0.704437 -0.0871589 0.0522666
0.719975 -0.101467 0.0424296
0.723393 -0.0811696 0.0544038
0.742364 -0.0873692 0.0480921
0.759829 -0.0699887 0.0565276
0.740399 -0.0578957 0.041879
0.759847 -0.0614038 0.0385098
0.753732 -0.0443467 0.0492395
0.740696 -0.0692383 0.0595066
0.752574 -0.0530361 0.0675478
0.722319 -0.0664549 0.0360019
0.692283 -0.111523 0.0759483
0.689335 -0.0856843 0.0967009
0.701187 -0.0879023 0.0805809
0.707873 -0.107788 0.0867439
0.680805 -0.106796 0.0918991
0.696763 -0.105021 0.103142
0.704432 -0.0507063 0.108895
0.715808 -0.0504935 0.0924799
0.703928 -0.062683 0.083478
0.691912 -0.0625571 0.0997079
0.704471 -0.078476 0.106837
0.715743 -0.0798717 0.0904053
0.772723 -0.0440364 0.049522
0.771271 -0.0504583 0.0678652
0.70809 -0.0224992 0.0935179
0.688487 -0.0145191 0.0854917
0.699338 -0.0375076 0.0851041
0.687528 -0.0394379 0.101357
0.696521 -0.0242565 0.109721
0.682718 -0.00126718 0.109559
0.759549 -0.0159034 0.0854815
0.759206 -0.0348496 0.0767194
0.694386 0.00200033 0.0936565
0.742599 0.0386344 0.110319
0.722738 0.0397208 0.0991747
0.752884 0.00383624 0.0926228
0.752806 0.0325821 0.0850624
0.740115 0.023142 0.0975281
0.762616 -0.0272588 0.0582182
0.780638 -0.0237128 0.0620598
0.765926 -0.00873935 0.0676648
0.781606 -0.00173252 0.0756461
0.776373 -0.0291161 0.080328
0.773511 -0.00556229 0.0931923
0.761241 0.0179153 0.104131
0.762828 0.0117307 0.0769736
0.773702 0.0226131 0.089498
0.0722658 0.0733489 0.0364757
0.0690722 0.0445621 0.0359293
0.0447495 0.0635617 0.0383824
0.106513 0.0598796 0.0354837
0.0877699 0.0641405 0.0357995
0.0544188 0.111012 0.0382219
0.0496038 0.0877319 0.0383733
0.0894744 0.0897641 0.036043
0.0806356 0.101305 0.0364832
0.113952 0.106068 0.0350317
0.0854035 0.120141 0.0361928
0.109437 0.0832991 0.0353241
0.129218 0.0608346 0.0349403
0.138579 0.105745 0.0347698
0.132793 0.0832795 0.0348524
0.0627993 0.158569 0.0375401
0.0594802 0.134501 0.0378289
0.0391052 0.149918 0.0361974
0.0889509 0.147208 0.035334
0.108744 0.149715 0.0355596
0.098605 0.126142 0.0359401
0.0417388 0.196546 0.0362929
0.0407422 0.172992 0.0361849
0.0648434 0.182737 0.037033
0.106249 0.195397 0.0348528
0.117616 0.173162 0.0357022
0.0963131 0.17163 0.0349029
0.14635 0.128146 0.0347762
0.130775 0.15157 0.0353372
0.122089 0.128742 0.0351894
0.154804 0.149992 0.0354472
0.140052 0.174789 0.036055
0.150957 0.197554 0.0354556
0.12825 0.196555 0.0355248
0.165065 0.174042 0.0364991
0.175979 0.196126 0.0349588
0.355164 0.0419607 0.0350951
0.303041 0.105292 0.0366604
0.282172 0.111297 0.0366984
0.344741 0.116884 0.0370337
0.216963 0.137045 0.0365205
0.265743 0.141939 0.0365539
0.261108 0.118282 0.0365992
0.239255 0.127014 0.0365062
0.244514 0.149877 0.0363039
0.305596 0.128592 0.036897
0.285901 0.135083 0.0367842
0.325097 0.122515 0.037001
0.0658368 0.207453 0.0365924
0.0416874 0.22042 0.0365603
0.0653507 0.232601 0.036222
0.116654 0.218656 0.0348059
0.0636333 0.257602 0.0358956
0.0396426 0.269682 0.0372559
0.0405028 0.244717 0.0368817
0.139228 0.219026 0.0353921
0.162019 0.219102 0.0352477
0.186752 0.217565 0.034722
0.198105 0.239336 0.0347058
0.138392 0.263576 0.0347832
0.1508 0.241052 0.0353591
0.127689 0.241329 0.0348055
0.184887 0.26272 0.0352496
0.173431 0.240934 0.0352414
0.162094 0.262773 0.0353467
0.0576727 0.307605 0.0354032
0.0612507 0.282513 0.0355536
0.0391725 0.294942 0.0375126
0.149648 0.285265 0.0347898
0.185018 0.305397 0.0354332
0.196404 0.284051 0.0352617
0.173321 0.284312 0.0353812
0.161789 0.306593 0.0348298
0.172719 0.328643 0.0346686
0.197453 0.324128 0.0358314
0.197698 0.355007 0.0360717
0.194553 0.341455 0.0360558
0.209728 0.260848 0.0347191
0.221401 0.281977 0.0347541
0.233245 0.302838 0.0347929
0.2088 0.304864 0.0353422
0.230132 0.343984 0.0353503
0.220685 0.326719 0.0352572
0.256815 0.340599 0.0351508
0.275957 0.349987 0.0364055
0.246632 0.321851 0.0348453
0.344776 0.291671 0.0355219
0.325285 0.30622 0.0355083
0.345199 0.310333 0.0362999
0.288857 0.33467 0.035705
0.31003 0.338276 0.0367565
0.308724 0.35941 0.036993
0.306474 0.320509 0.0355432
0.327597 0.348027 0.0369386
0.327711 0.324421 0.0361856
0.358246 0.325857 0.0369449
0.352055 0.339799 0.0369922
0.343939 0.347163 0.0368562
0.378004 0.0524674 0.0346551
0.430021 0.0635524 0.0350409
0.40344 0.0594517 0.0347953
0.418509 0.0412984 0.0355153
0.364999 0.111712 0.0369192
0.454835 0.0688381 0.0356891
0.459208 0.0473766 0.0361849
0.479559 0.0723512 0.0359124
0.507283 0.054049 0.0360886
0.504085 0.0741348 0.0356828
0.484643 0.0532403 0.0359129
0.492433 0.192881 0.0376185
0.518281 0.168425 0.0374153
0.501401 0.185553 0.0376577
0.511223 0.178606 0.0377202
0.522251 0.0439499 0.0369539
0.526647 0.0774624 0.0354211
0.556477 0.0621716 0.0365507
0.532572 0.0584765 0.0364879
0.54802 0.0457454 0.0377768
0.548778 0.0802512 0.0353205
0.57903 0.0687883 0.036692
0.598804 0.0748576 0.0367777
0.573501 0.0486672 0.0379493
0.596433 0.0542522 0.0374359
0.595108 0.0896717 0.0360536
0.570834 0.0835488 0.0354608
0.598374 0.116852 0.0380879
0.622363 0.0792371 0.0367388
0.617602 0.0627078 0.0372455
0.623132 0.0434028 0.038297
0.668545 0.0672216 0.0376186
0.640772 0.0716589 0.0369951
0.663595 0.040408 0.0377507
0.646089 0.0535639 0.0380216
0.635996 0.112675 0.0379594
0.61576 0.0974346 0.0378026
0.642993 0.0904865 0.037084
0.662043 0.0842333 0.0368007
0.678663 0.119988 0.035963
0.661658 0.105317 0.0362608
0.547006 0.148505 0.0379082
0.536611 0.152315 0.0373988
0.556809 0.138379 0.0378873
0.589891 0.155304 0.0363946
0.57695 0.125901 0.0379001
0.556742 0.186382 0.0359917
0.523024 0.199931 0.0363997
0.539905 0.184227 0.0365969
0.529249 0.163563 0.0377307
0.556604 0.169035 0.0370014
0.573409 0.170252 0.0363077
0.606842 0.141352 0.0362751
0.667461 0.138666 0.0352727
0.652008 0.125951 0.0356317
0.437634 0.236543 0.0375659
0.385015 0.265275 0.0360421
0.3648 0.277751 0.0356795
0.431536 0.271782 0.03628
0.405554 0.253553 0.0366188
0.401386 0.268008 0.0370316
0.419749 0.252827 0.0374407
0.426864 0.242631 0.0373656
0.455101 0.220447 0.037228
0.46755 0.2186 0.0376382
0.473144 0.206054 0.037232
0.448138 0.231646 0.0376809
0.484887 0.202778 0.0377352
0.504995 0.235036 0.0356552
0.505754 0.215367 0.0363192
0.488007 0.230267 0.0362763
0.467799 0.264113 0.035676
0.449103 0.277784 0.0356778
0.469531 0.244801 0.0362492
0.45051 0.258625 0.0362234
0.486609 0.250005 0.0356391
0.393201 0.317144 0.0357011
0.363649 0.296061 0.0364791
0.375308 0.311151 0.0365913
0.382597 0.282269 0.0367136
0.393521 0.297929 0.0365202
0.43018 0.290847 0.0356965
0.412414 0.284835 0.036411
0.411542 0.303894 0.035705
0.374436 0.330166 0.0358347
0.522596 0.219218 0.0357287
0.539813 0.202881 0.0358119
0.196682 0.432477 0.0383716
0.0573558 0.470679 0.0368082
0.0550191 0.450574 0.0361261
0.0708912 0.463257 0.0366383
0.0891047 0.468327 0.0370073
0.107767 0.468113 0.037027
0.066303 0.495608 0.0367212
0.0766016 0.504626 0.0361553
0.0490584 0.49458 0.035866
0.0399919 0.481861 0.036368
0.118876 0.497335 0.0377865
0.0944078 0.499771 0.0374115
0.102533 0.507326 0.0364815
0.143753 0.460238 0.0373434
0.125969 0.466069 0.0372528
0.1905 0.475506 0.0366398
0.161209 0.452195 0.0375302
0.178812 0.44304 0.0379606
0.149973 0.496634 0.0367908
0.127265 0.50415 0.0366047
0.170737 0.486661 0.0368517
0.205738 0.367849 0.0359471
0.22363 0.368782 0.0361739
0.235429 0.39061 0.038024
0.211707 0.390116 0.0356566
0.261076 0.367347 0.0383872
0.240236 0.361535 0.0363129
0.278383 0.391813 0.037299
0.259523 0.372231 0.0389398
0.213675 0.419853 0.0386313
0.236424 0.416332 0.0381805
0.262386 0.425276 0.0353098
0.244941 0.438501 0.0356263
0.280313 0.411114 0.0353542
0.258451 0.40326 0.0380582
0.298162 0.394436 0.0354294
0.291104 0.372391 0.0376703
0.313497 0.380493 0.035386
0.329608 0.366009 0.0355863
0.226581 0.449652 0.036203
0.20905 0.462912 0.0364188
0.70903 0.072255 0.0377014
0.702925 0.0494244 0.0356619
0.687158 0.0551344 0.0378232
0.696893 0.112996 0.0360636
0.690322 0.082328 0.0366572
0.710099 0.0980116 0.0358058
0.68028 0.0978251 0.0362537
0.72637 0.115537 0.0352362
0.695437 0.136677 0.0359979
0.711943 0.155437 0.0366573
0.682743 0.153606 0.0351454
0.711459 0.129541 0.0362482
0.725004 0.145294 0.0368668
0.740644 0.134347 0.0352824
0.75334 0.155355 0.037082
0.698752 0.168615 0.0353277
0.719397 0.174949 0.037329
0.744071 0.189848 0.0356766
0.761961 0.178419 0.0362618
0.725468 0.182347 0.0370834
0.0610844 -0.419992 0.0376121
0.0407671 -0.406806 0.037573
0.118593 -0.419771 0.0372784
0.0875888 -0.401583 0.036727
0.093365 -0.42471 0.0368808
0.069011 -0.374635 0.0362694
0.0473047 -0.386204 0.0365253
0.0653076 -0.393411 0.0367021
0.0496749 -0.362471 0.0351382
0.0857679 -0.377819 0.0363938
0.110019 -0.385713 0.0351476
0.0914691 -0.362375 0.0366621
0.143486 -0.411748 0.0375377
0.186577 -0.407632 0.0351002
0.16213 -0.419721 0.0353033
0.13004 -0.36935 0.0347925
0.166154 -0.399622 0.0376384
0.186961 -0.38471 0.0376932
0.0683741 -0.349374 0.0348401
0.117466 -0.350432 0.0363319
0.102518 -0.356723 0.0366314
0.117044 -0.334717 0.0360979
0.0865106 -0.334307 0.0346876
0.103557 -0.31751 0.034802
0.138063 -0.334319 0.035862
0.14859 -0.351962 0.0348105
0.166034 -0.333883 0.0348891
0.155641 -0.316394 0.0357127
0.121014 -0.299577 0.0348875
0.140749 -0.283222 0.0353875
0.148324 -0.297763 0.0360028
0.132394 -0.316114 0.0358713
0.183 -0.316067 0.0349282
0.190875 -0.280885 0.0354571
0.200323 -0.298944 0.0349425
0.17292 -0.298233 0.0353627
0.209188 -0.392342 0.0350245
0.205375 -0.367398 0.0378147
0.229363 -0.37477 0.035086
0.221 -0.347966 0.0379123
0.235335 -0.327836 0.038015
0.262881 -0.336432 0.0355745
0.246866 -0.355951 0.0352885
0.217832 -0.281951 0.0349474
0.27759 -0.31652 0.0359114
0.248031 -0.306771 0.0380517
0.25998 -0.285288 0.0376963
0.291381 -0.296402 0.0362782
0.158998 -0.273021 0.0362646
0.16871 -0.272182 0.0365071
0.173293 -0.249682 0.0352753
0.188693 -0.256946 0.0360061
0.191174 -0.232255 0.0352333
0.208842 -0.263358 0.0355994
0.227211 -0.246157 0.0356209
0.235303 -0.265263 0.0350072
0.273682 -0.265131 0.0375488
0.2526 -0.248563 0.0351897
0.206929 -0.239696 0.0359674
0.225583 -0.222495 0.0359735
0.209623 -0.215365 0.0352403
0.243832 -0.20508 0.0360239
0.263879 -0.2122 0.0358342
0.245658 -0.229062 0.0357113
0.269488 -0.231589 0.0355108
0.305185 -0.276501 0.0365313
0.28808 -0.245888 0.0375833
0.318774 -0.256951 0.0368687
0.318231 -0.209148 0.0376896
0.302769 -0.227195 0.0376671
0.286258 -0.214509 0.0359327
0.331819 -0.237501 0.0373639
0.344951 -0.218496 0.0378829
0.227962 -0.198288 0.0352565
0.262637 -0.188066 0.0361604
0.247252 -0.181999 0.0353843
0.266524 -0.166017 0.0355349
0.303589 -0.19745 0.0363499
0.319292 -0.161852 0.0359679
0.281543 -0.171317 0.0363391
0.282555 -0.195604 0.0359963
0.30114 -0.178588 0.036069
0.333854 -0.191224 0.0378342
0.34947 -0.173261 0.0384629
0.340474 -0.164684 0.0375019
0.321672 -0.180902 0.036825
0.358482 -0.200096 0.0383089
0.308339 -0.138097 0.0368279
0.298876 -0.153171 0.0367226
0.285521 -0.150149 0.0358155
0.314602 -0.130844 0.0367112
0.337653 -0.145711 0.0360349
0.356456 -0.12938 0.0362479
0.33161 -0.125632 0.0367971
0.0967313 -0.0421932 0.0344972
0.184468 -0.0859011 0.0345553
0.140157 -0.046138 0.0366175
0.148108 -0.0560588 0.0363945
0.121924 -0.0648196 0.0342882
0.152806 -0.0798953 0.0344229
0.16648 -0.0525977 0.0364254
0.173782 -0.0653409 0.0361563
0.191762 -0.0553701 0.036303
0.098582 -0.0101633 0.0355902
0.0804753 -0.0146686 0.0346305
0.113998 -0.0323244 0.0360426
0.117974 -0.0119223 0.0357352
0.0710205 0.0147772 0.0349423
0.0864821 0.0387439 0.0356703
0.110846 0.0122987 0.0359715
0.105582 0.0363589 0.0355619
0.0901939 0.0136651 0.0354822
0.128973 -0.0349033 0.0363462
0.147762 -0.0176355 0.0354418
0.13831 -0.00142711 0.0352619
0.162748 -0.0280057 0.0354389
0.181191 -0.0331561 0.0354639
0.126098 0.0158576 0.0356783
0.127372 0.0387147 0.0350096
0.216349 -0.0844358 0.0347232
0.227041 -0.065257 0.0360534
0.216683 -0.052087 0.0362198
0.200799 -0.0688063 0.0360017
0.273645 -0.0649467 0.0354069
0.271697 -0.0506852 0.0365602
0.2453 -0.076736 0.0351014
0.251737 -0.0604789 0.0361919
0.241005 -0.0443825 0.0360878
0.348722 -0.0930029 0.0353677
0.351485 -0.110542 0.0364667
0.331477 -0.11127 0.0358632
0.287981 -0.0401802 0.036451
0.30015 -0.0476144 0.0356092
0.220538 -0.0316039 0.0355718
0.2007 -0.0351599 0.0355718
0.254746 -0.0125507 0.035366
0.279084 -0.0198218 0.035848
0.239821 -0.0259835 0.035834
0.272032 0.000732161 0.035103
0.262141 -0.0323533 0.0359849
0.296408 -0.00687181 0.0358801
0.30544 -0.0238358 0.0359205
0.321244 -0.0393816 0.03505
0.341201 -0.028667 0.0350019
0.3247 -0.0133149 0.0357311
0.344754 -0.00303898 0.0355123
0.291216 0.0142732 0.0349077
0.31561 0.00436375 0.0357137
0.312809 0.026593 0.0347466
0.33493 0.0160857 0.0359705
0.341625 0.0292293 0.0357007
0.372214 -0.182012 0.0386963
0.386997 -0.16512 0.0388184
0.359688 -0.148904 0.0381433
0.378618 -0.132903 0.0381783
0.402503 -0.148857 0.038658
0.417985 -0.132772 0.0385666
0.389484 -0.0797536 0.0361436
0.370769 -0.0954786 0.0362617
0.375023 -0.11334 0.0364258
0.393822 -0.0976543 0.0365141
0.397621 -0.116606 0.0378992
0.412116 -0.0823354 0.0364945
0.435628 -0.0845938 0.0371799
0.434053 -0.117253 0.0384709
0.416694 -0.10041 0.0375481
0.366506 -0.0761653 0.0351616
0.384516 -0.0599364 0.0350889
0.430083 -0.0677664 0.0364876
0.427043 -0.0483059 0.0361635
0.408001 -0.063629 0.0360738
0.402884 -0.0440043 0.0350981
0.450637 -0.102124 0.0383858
0.468019 -0.0873421 0.0383126
0.466521 -0.114007 0.0359826
0.516907 -0.093717 0.0370117
0.499839 -0.0973544 0.0366281
0.483084 -0.104305 0.036221
0.473815 -0.0563716 0.0362849
0.45486 -0.0696731 0.0367544
0.448042 -0.0538881 0.036491
0.465483 -0.0406704 0.0364123
0.487044 -0.075059 0.0379402
0.507038 -0.067353 0.0371299
0.490668 -0.0435905 0.0360205
0.362385 -0.019339 0.0349031
0.384263 -0.011488 0.0348243
0.406676 -0.00415453 0.0349501
0.42164 -0.0297264 0.0353509
0.387733 0.0128002 0.0354429
0.364397 0.00622321 0.0352756
0.37094 0.0271348 0.0354343
0.394755 0.0351332 0.0353656
0.410836 0.0196031 0.0355151
0.433843 0.0272458 0.0360683
0.428832 0.0030658 0.0352281
0.445597 -0.0331171 0.0365609
0.441172 -0.0177724 0.0360742
0.464064 -0.00940674 0.0376295
0.462915 -0.016533 0.03756
0.486226 -0.000315154 0.038634
0.501882 -0.018262 0.0374967
0.482412 -0.00121869 0.0384926
0.483117 -0.028275 0.0366029
0.506747 -0.0305857 0.0364472
0.449788 0.0105559 0.0354707
0.470026 0.0351061 0.0365377
0.469374 0.0171545 0.0360227
0.444447 0.0388168 0.036173
0.497206 0.0289697 0.0372689
0.491266 0.0326528 0.0372193
0.50282 0.00481478 0.0388986
0.534126 -0.0921274 0.0373794
0.551673 -0.0934162 0.0376069
0.569027 -0.097527 0.0375787
0.588097 -0.100125 0.0377242
0.527431 -0.0643735 0.0367092
0.547731 -0.0647668 0.0364892
0.585765 -0.0705554 0.0364481
0.567419 -0.0671557 0.0364794
0.608944 -0.101054 0.0380128
0.630737 -0.10193 0.0381818
0.675698 -0.098799 0.0381525
0.653098 -0.10073 0.0381948
0.624455 -0.075011 0.035793
0.604399 -0.0735378 0.0361034
0.664815 -0.0748249 0.0355949
0.644623 -0.0752701 0.0356513
0.522797 -0.0182936 0.0371998
0.539634 -0.00806179 0.0378275
0.520502 0.0276115 0.0380364
0.558765 -0.00179512 0.0374195
0.547678 0.0220975 0.0384196
0.572555 0.0253477 0.0385581
0.600366 0.0279079 0.0392404
0.640774 0.0287096 0.0382706
0.677389 0.0354593 0.035793
0.698828 -0.0955923 0.0381406
0.722101 -0.0884655 0.0378028
0.684524 -0.0731997 0.0356455
0.703446 -0.0701818 0.035751
0.743403 -0.0765386 0.0370473
0.0258099 0.0581512 0.0377428
0.0384537 0.0532098 0.0531105
0.0370242 0.270075 0.04875
0.0282452 0.220604 0.0874906
0.00768155 0.232359 0.092274
0.0199707 0.22168 0.107008
-0.0120638 0.24532 0.0968627
-0.0301255 0.260069 0.10088
-0.0144223 0.270871 0.107103
0.00213226 0.257803 0.10348
0.0204417 0.246186 0.0991293
0.0265429 0.318105 0.0480154
0.0316419 0.294207 0.0481296
0.0303374 0.352098 0.0595926
0.0388796 0.33022 0.055477
0.0217909 0.341751 0.0497179
-0.0466326 0.276628 0.104994
-0.000436525 0.233992 0.111991
0.0323204 0.234986 0.112804
-0.0368014 0.264034 0.12128
-0.0196592 0.248028 0.116891
-0.0214441 0.272846 0.126023
-0.00526952 0.258637 0.122247
0.0128864 0.246087 0.117672
-0.0639917 0.302945 0.128913
-0.0506503 0.317907 0.114471
-0.0520429 0.282281 0.125562
-0.0702535 0.316177 0.110352
-0.0469516 0.306404 0.132148
-0.0604234 0.295417 0.108452
-0.075607 0.338552 0.110929
-0.0541466 0.325593 0.133202
-0.0560947 0.335771 0.1148
-0.0736149 0.349486 0.130167
-0.0712473 0.325402 0.13056
-0.0570409 0.353626 0.113316
-0.057361 0.345705 0.132804
-0.0416978 0.300854 0.113239
-0.0293298 0.285146 0.11053
-0.0357692 0.288695 0.129552
-0.0556814 0.397021 0.0948576
-0.0449041 0.383125 0.103327
-0.0678928 0.381356 0.103326
-0.045083 0.408459 0.109009
-0.0100347 0.399175 0.0624409
0.0206664 0.394435 0.0551701
0.00478418 0.385702 0.071721
0.0353688 0.379408 0.0571211
0.0125212 0.364652 0.0539358
0.0327712 0.370699 0.042835
0.00152379 0.386708 0.0559464
0.0217351 0.396774 0.0703611
0.0188568 0.371624 0.0659852
-0.0245845 0.405604 0.0727773
0.00492936 0.41088 0.068193
-0.00792204 0.392265 0.0793174
-0.03385 0.391739 0.095901
-0.0209513 0.394343 0.0875851
-0.0404567 0.40544 0.0843071
-0.0219346 0.405272 0.105757
-0.0106798 0.416837 0.0821342
-0.0279161 0.416523 0.0961894
-0.00654513 0.407356 0.0944228
0.0083456 0.404378 0.0825566
-0.0749376 0.361199 0.10887
-0.0529128 0.36978 0.109237
-0.0595875 0.393415 0.119229
-0.0552153 0.365514 0.130006
-0.069656 0.373077 0.126566
-0.0478744 0.383065 0.124187
-0.0362651 0.39689 0.116027
-0.0607093 0.174756 0.23017
-0.0423194 0.167138 0.228472
-0.756433 0.119095 0.76304
-0.772697 0.106145 0.76304
-0.759746 0.0898807 0.76304
-0.743482 0.102831 0.76304
0.018195 -0.401913 0.0525875
0.0284107 -0.412821 0.061411
-0.00127433 -0.383244 0.0522503
-0.012042 -0.371149 0.0632088
0.00584393 -0.394587 0.0640532
0.0164361 -0.378932 0.0707978
0.0295161 -0.38551 0.0558929
0.0359987 -0.396135 0.0694437
0.0125887 -0.369208 0.0546825
-0.0160965 -0.3596 0.0479827
-0.00604436 -0.334848 0.0658643
-0.00400914 -0.329757 0.047427
-0.0259534 -0.321773 0.0585176
-0.0217288 -0.338505 0.0446488
-0.0230934 -0.34432 0.0608407
0.00152014 -0.357714 0.0694073
0.000494306 -0.349572 0.0511571
-0.00523961 -0.314739 0.0624391
-0.0232656 -0.296319 0.0405311
-0.00494421 -0.289233 0.0386662
-0.0231225 -0.317992 0.0430076
-0.0242701 -0.300359 0.0567341
-0.00246755 -0.293632 0.0576979
-0.00488134 -0.309977 0.0435285
0.0214711 -0.414131 0.101629
0.0286489 -0.427822 0.11327
0.0120402 -0.39463 0.104832
0.0148063 -0.403735 0.119412
0.0270368 -0.374124 0.123397
0.024128 -0.354932 0.122109
0.0248236 -0.367481 0.106103
0.00714407 -0.37696 0.106039
0.00468466 -0.363001 0.122062
0.00783832 -0.382247 0.121574
-0.00295838 -0.31927 0.103105
0.000612183 -0.322989 0.119742
0.0204276 -0.314739 0.11604
0.0021223 -0.343006 0.121509
0.00311934 -0.357996 0.105728
0.0208198 -0.348779 0.104233
0.0175285 -0.32971 0.101716
0.0221691 -0.335308 0.119708
0.000158221 -0.339095 0.104822
0.00948646 -0.288825 0.0947114
0.0181502 -0.293622 0.111831
-0.00654112 -0.298839 0.101123
-0.0103991 -0.278431 0.099628
0.0138452 -0.309615 0.0983069
-0.003301 -0.281623 0.11551
-0.00106595 -0.302447 0.117544
0.0150123 -0.2722 0.107954
-0.0216704 -0.278512 0.0546074
-0.0235262 -0.274145 0.037943
-0.0194687 -0.256476 0.05297
-0.0241911 -0.251462 0.0361006
0.000449164 -0.272162 0.0528936
0.00344177 -0.250128 0.0491085
-0.0142612 -0.210914 0.0510116
-0.0169504 -0.233944 0.0516645
0.0065688 -0.227252 0.0452329
0.00958342 -0.20385 0.0419739
-0.00781778 -0.164188 0.0520151
-0.0216744 -0.179935 0.036527
-0.0113647 -0.187795 0.0512998
0.0119679 -0.180353 0.040668
-0.0138526 -0.131849 0.0424344
-0.0182305 -0.156333 0.038442
-0.00347279 -0.140432 0.0532644
0.0147012 -0.156611 0.0403294
0.0176572 -0.132677 0.0414163
0.00458522 -0.267947 0.0916568
-0.00969121 -0.107563 0.0454956
-0.00514059 -0.0831442 0.0467301
0.00098874 -0.116625 0.0547526
0.00589275 -0.0922121 0.0554848
0.024912 -0.0843803 0.0443239
0.0208341 -0.108673 0.0432979
-0.000153311 -0.0587123 0.0467552
0.0111606 -0.0674839 0.055774
0.016479 -0.0429931 0.0558347
0.0298501 -0.060051 0.0446462
0.0352218 -0.0359234 0.0447518
0.0109127 -0.0110195 0.0449462
0.0223413 -0.0183484 0.0552152
0.00506903 -0.0348531 0.0463212
0.0414886 -0.0116557 0.0441759
0.0332412 0.0298845 0.0539542
0.0213263 0.0355142 0.0403904
0.016589 0.0128478 0.0428138
0.0281154 0.00624404 0.0544657
0.0111922 -0.250166 0.103578
0.0062855 -0.227981 0.099533
-0.00116636 -0.246506 0.0884192
-0.00608423 -0.260306 0.113029
-0.020275 -0.236226 0.0963537
-0.00952695 -0.238619 0.110568
-0.0149755 -0.257386 0.0978517
0.000484463 -0.205775 0.0962413
-0.00769852 -0.225073 0.0856128
-0.0147275 -0.203833 0.0834852
-0.013803 -0.216954 0.108622
-0.0263286 -0.215023 0.0954445
-0.0327649 -0.193768 0.0938997
-0.0189542 -0.19471 0.106034
-0.00609259 -0.183491 0.0922318
-0.0247681 -0.17272 0.103345
-0.0224382 -0.182703 0.0806698
-0.0397787 -0.172574 0.0922395
-0.0471322 -0.151262 0.0896781
-0.0306381 -0.161832 0.0777989
-0.0134883 -0.161568 0.0883414
-0.0312414 -0.150552 0.0996688
-0.0214959 -0.139722 0.083693
-0.0393124 -0.140715 0.0743494
-0.0379501 -0.12857 0.0958083
-0.0548222 -0.12974 0.0870522
-0.0568754 -0.0975068 0.0690136
-0.0623624 -0.108144 0.085186
-0.0298 -0.117833 0.0791513
-0.0482035 -0.119201 0.0711726
-0.0448191 -0.106704 0.0926835
-0.0380031 -0.0959762 0.0757137
-0.0697917 -0.086108 0.0833905
-0.0583002 -0.0622818 0.087364
-0.0516958 -0.084565 0.0896753
-0.065389 -0.0751817 0.0671114
-0.0768823 -0.0636733 0.0822287
-0.0734636 -0.0522788 0.066042
-0.0461337 -0.073679 0.0725329
-0.0539115 -0.0509998 0.0702932
-0.0832735 -0.0411482 0.0824363
-0.0805281 -0.0289888 0.0667391
-0.088779 -0.0181543 0.0837999
-0.0642347 -0.0400405 0.0865066
-0.0607853 -0.0281264 0.0698838
-0.0694393 -0.0175087 0.0867563
-0.0866713 -0.00489396 0.0690648
-0.0667956 -0.00457691 0.0709751
-0.0930454 0.00490554 0.087302
-0.0734322 0.00499746 0.0890807
-0.0913751 0.0194212 0.0738875
-0.0943521 0.0432076 0.0816741
-0.0958445 0.0274289 0.0934906
-0.071451 0.0192402 0.074666
-0.0760988 0.0269456 0.0942129
-0.0744432 0.0425951 0.0814758
-0.0972184 0.0497447 0.101861
-0.0956449 0.066805 0.0921188
-0.097015 0.0710905 0.112954
-0.0773644 0.0487042 0.101641
-0.0771083 0.0694739 0.111984
-0.0757904 0.0657809 0.0911098
-0.0754578 0.0883799 0.125355
-0.0951037 0.0892309 0.105494
-0.0753121 0.0877622 0.103987
-0.0953165 0.0906329 0.126839
-0.0927236 0.109462 0.121746
-0.0921871 0.108847 0.142894
-0.0886794 0.128001 0.140357
-0.0723745 0.105841 0.141137
-0.0690319 0.12535 0.138464
-0.0729951 0.107508 0.119959
-0.0876898 0.124768 0.161265
-0.0822756 0.137807 0.181333
-0.0680213 0.120889 0.159312
-0.0627927 0.132855 0.179421
-0.0832203 0.143793 0.1609
-0.0766604 0.156358 0.182961
-0.0636949 0.140246 0.159055
-0.0573338 0.151735 0.181234
-0.0685561 0.157736 0.225511
-0.0689641 0.166834 0.206281
-0.0758068 0.148979 0.202751
-0.0499748 0.150045 0.223932
-0.049979 0.160884 0.204619
-0.0566383 0.142714 0.201007
-0.0202111 0.0615227 0.0362655
-0.00537951 0.0477967 0.0366018
-0.00267107 0.0718741 0.0364877
-0.0383926 0.0747812 0.0352423
-0.0408637 0.0523474 0.0351622
0.0401457 0.0398411 0.0383922
0.0122288 0.0569936 0.0370955
-0.00108833 0.0960798 0.036216
-0.0187967 0.0841639 0.0363235
-0.0212372 0.107312 0.0367967
-0.0352281 0.0972496 0.0355568
0.0154531 0.106044 0.0363476
-0.000162018 0.119766 0.0359716
0.0141959 0.0816226 0.0366747
0.0329873 0.104267 0.0366732
0.0296894 0.0812153 0.0371327
-0.0182326 0.145488 0.0364962
-0.0339227 0.155734 0.0355451
-0.0306687 0.132661 0.0363097
-0.0252509 0.12118 0.036904
0.0363618 0.127148 0.0363323
0.0163138 0.130072 0.0360616
0.000787802 0.143222 0.0361307
0.0171466 0.154196 0.035815
-0.0346613 0.178395 0.0354181
-0.0174245 0.19116 0.0362115
-0.0173377 0.168376 0.0362769
0.0173593 0.178452 0.0357091
0.00121602 0.191362 0.0362385
0.00133846 0.167349 0.0362105
-0.0350402 0.224322 0.0353752
-0.0346331 0.201215 0.0354044
-0.0178281 0.214379 0.0361716
-0.0184036 0.237771 0.0361481
0.000308431 0.239559 0.0363006
0.0168521 0.202573 0.0356727
0.0160556 0.226725 0.0357068
0.000915962 0.215438 0.0362581
-0.000670355 0.263668 0.0363582
-0.0359446 0.27148 0.0353481
-0.0356349 0.247676 0.035347
-0.0193468 0.261328 0.0361551
0.0134724 0.274751 0.0360329
0.0149536 0.250893 0.0358307
-0.0361768 0.295915 0.035329
-0.0207636 0.30972 0.0361686
-0.0202139 0.28534 0.0361482
-0.00211981 0.312395 0.0364957
-0.0014449 0.287993 0.0364161
0.012398 0.298512 0.0363653
-0.034125 0.347217 0.0353186
-0.0357757 0.321111 0.0353208
-0.020705 0.334625 0.036216
-0.00232418 0.336919 0.0365753
0.0121516 0.345775 0.0373777
0.0117966 0.322181 0.0368517
0.0369444 0.346634 0.037157
0.0383738 0.320654 0.0376217
-0.0189824 0.360151 0.036221
-0.0304627 0.374177 0.0353123
-0.0147831 0.386013 0.0363597
-0.000703278 0.362084 0.0366765
0.0232829 0.393933 0.0366064
0.0163438 0.370198 0.0377933
0.00503439 0.388283 0.0371078
-0.0131621 0.428496 0.0353522
-0.0239369 0.401611 0.0353176
-0.0071776 0.412107 0.036163
0.0242702 0.434329 0.0363796
0.0133255 0.412197 0.0365031
0.00350877 0.437438 0.0360886
0.0409569 0.434231 0.0359694
0.0297397 0.415288 0.0360269
0.0389509 0.454334 0.0364465
0.019156 0.461277 0.0361811
0.00266812 0.454338 0.0354909
0.0236836 0.477054 0.0356884
-0.124339 -0.353588 0.0345886
-0.131609 -0.324241 0.0346578
-0.133142 -0.294122 0.0346789
-0.0915511 -0.405023 0.034557
-0.0627826 -0.423491 0.0346033
-0.0418966 -0.41348 0.0357148
-0.0682053 -0.401983 0.0357195
-0.0870422 -0.38262 0.0359529
-0.111257 -0.380953 0.0345504
-0.0859919 -0.360112 0.0363137
-0.0711771 -0.379647 0.0362041
-0.0514672 -0.394232 0.0360236
-0.0488081 -0.3721 0.0357143
-0.0136262 -0.418428 0.0357384
-0.0309177 -0.433471 0.0345889
-0.0271371 -0.402244 0.036008
-0.00210532 -0.403328 0.0363146
0.013989 -0.416518 0.0360709
0.00178789 -0.435366 0.0346267
0.0322934 -0.430912 0.0348275
-0.0318215 -0.380398 0.0357318
-0.0124027 -0.383148 0.0362619
0.00887065 -0.378983 0.0364499
0.0300832 -0.372286 0.0355684
0.0227375 -0.396707 0.0372989
-0.110262 -0.335786 0.03608
-0.101077 -0.360211 0.0360432
-0.0956372 -0.337357 0.0363614
-0.0617349 -0.35844 0.0356228
-0.0778847 -0.324393 0.0356706
-0.0717294 -0.342437 0.0356285
-0.112355 -0.287329 0.0361662
-0.114972 -0.310912 0.0360614
-0.0791875 -0.305455 0.0356838
-0.0994188 -0.313177 0.0363319
-0.0970555 -0.289977 0.0364072
-0.075715 -0.286254 0.0355407
-0.128207 -0.267948 0.0348468
-0.0904469 -0.26767 0.0363048
-0.0826916 -0.245549 0.0361137
-0.120661 -0.244135 0.0350188
-0.100755 -0.243234 0.0362582
-0.10711 -0.264859 0.0361677
-0.063267 -0.245835 0.0353796
-0.0701074 -0.266464 0.0354301
-0.101096 -0.215802 0.0365503
-0.106176 -0.223663 0.0363706
-0.0863873 -0.202541 0.0362537
-0.0757679 -0.224454 0.0357991
-0.0663447 -0.202918 0.036173
-0.0563869 -0.22474 0.0353867
-0.048137 -0.203228 0.0356227
-0.00415032 -0.267667 0.0369008
-0.00371959 -0.244671 0.037241
-0.0246495 -0.227906 0.0358303
-0.00346814 -0.220589 0.0375028
-0.0239036 -0.203823 0.0360318
-0.0929566 -0.168799 0.0351611
-0.100475 -0.190831 0.0352257
-0.0565865 -0.181247 0.0364257
-0.0423319 -0.179318 0.0364845
-0.0771796 -0.18117 0.0359509
-0.0855394 -0.146803 0.0351321
-0.0412186 -0.126014 0.0364363
-0.0409552 -0.160335 0.0370179
-0.0785756 -0.124587 0.0351368
-0.0693894 -0.15972 0.0356393
-0.0625686 -0.137607 0.0358127
-0.0446445 -0.150417 0.0369114
-0.00318214 -0.196046 0.0377009
-0.00265864 -0.171563 0.037903
0.000124181 -0.147391 0.0379843
-0.0276704 -0.137698 0.0371387
0.00453842 -0.12352 0.0379208
-0.0492291 -0.0922323 0.0362611
-0.0660434 -0.0802582 0.035154
-0.0720977 -0.102403 0.0351426
-0.05573 -0.115001 0.0361077
-0.0602173 -0.0582129 0.0350943
-0.0425345 -0.0693926 0.0364219
-0.0354459 -0.102872 0.0365014
-0.0203968 -0.11403 0.0373321
-0.0135824 -0.0899399 0.0374218
0.00920887 -0.100159 0.0377445
-0.00235066 -0.0413814 0.0372943
-0.00745706 -0.0657132 0.0374582
-0.0302773 -0.0800702 0.0366267
-0.025484 -0.057046 0.036897
-0.0349515 -0.0466828 0.0367805
0.0143036 -0.0768036 0.0376361
0.0195739 -0.0532186 0.0376438
-0.0547537 -0.0363922 0.0349855
-0.0503735 -0.0148441 0.0348982
-0.0436711 0.0298973 0.0350906
-0.0467995 0.00742059 0.0349945
-0.0242818 -0.0327627 0.03734
-0.0261795 -0.00709808 0.0368732
-0.0234076 -0.0232355 0.0373605
-0.0136849 4.92654e-05 0.0370008
0.00202483 -0.0172262 0.037242
0.0246844 -0.0297236 0.0377009
0.0301728 -0.00644456 0.0378541
-0.0222029 0.038812 0.0363072
-0.0245344 0.0161301 0.0364374
-0.00873048 0.0238272 0.0367317
0.00618112 0.00736507 0.0374529
0.0356347 0.0167162 0.0381745
0.00958907 0.0323846 0.0374591
-0.0612511 0.163976 0.248618
-0.052402 0.179867 0.253309
-0.0434925 0.154638 0.246968
-0.034629 0.170892 0.251522
-0.0529415 0.168724 0.271401
-0.0431799 0.183887 0.276213
-0.0358414 0.158155 0.269768
-0.0259768 0.173869 0.274262
-0.0438127 0.17205 0.294055
-0.0334187 0.186707 0.29871
-0.0272694 0.160592 0.292328
-0.0166509 0.176005 0.296532
-0.0342598 0.173988 0.316349
-0.0238752 0.18799 0.319612
-0.0180972 0.161904 0.314234
-0.00724598 0.177101 0.317269
-0.0236982 0.175142 0.33717
-0.0142565 0.188646 0.338312
-0.00760716 0.162698 0.333866
0.00267916 0.178279 0.33583
-0.0130179 0.175344 0.355783
-0.00461451 0.189421 0.355152
0.0032658 0.163497 0.351335
0.0127746 0.179836 0.352696
-0.0027067 0.175562 0.372567
0.00451091 0.190006 0.370766
0.0138249 0.16444 0.367189
0.0224263 0.181403 0.368506
0.00801292 0.176369 0.388452
0.0152005 0.191206 0.387771
0.0256506 0.165965 0.384283
0.0335592 0.183496 0.385896
0.0195773 0.177554 0.405682
0.0264827 0.193118 0.40602
0.0381807 0.167974 0.402867
0.0452182 0.186272 0.404561
0.0312171 0.179227 0.424192
0.0376101 0.195563 0.425183
0.0505259 0.170709 0.422557
0.0566614 0.189404 0.424067
0.0435465 0.181787 0.443595
0.0491946 0.19888 0.444912
0.0634007 0.174306 0.442844
0.0685182 0.193479 0.444101
0.0555562 0.184775 0.463577
0.0603518 0.202403 0.464905
0.0756998 0.178351 0.463245
0.0798521 0.197833 0.464215
0.0680142 0.188439 0.483712
0.0714721 0.206308 0.483996
0.0880011 0.182761 0.482541
0.0910545 0.202518 0.483234
0.0799995 0.192118 0.50273
0.0822365 0.210201 0.502341
0.100029 0.187511 0.501216
0.101922 0.207419 0.501642
0.0912935 0.195901 0.521231
0.0925117 0.214192 0.520741
0.111518 0.192498 0.520102
0.112266 0.212484 0.520273
0.102981 0.200268 0.539901
0.103137 0.218907 0.539429
0.123106 0.19881 0.538636
0.123106 0.21881 0.538636
0.114597 0.205893 0.558363
0.114597 0.225893 0.558363
0.134597 0.205893 0.558363
0.134597 0.225893 0.558363
0.126009 0.212117 0.578101
0.126009 0.232117 0.578101
0.146009 0.212117 0.578101
0.146009 0.232117 0.578101
